0.4747510424955524,0.4783950500285966,0.4809042348127849,0.481145389506248,0.48638962647185174,0.4894159750635565,0.4982762252798814,0.5058165800993355,0.5061338321182947,0.5128734955463216,0.5233164496647749,0.5293268682016189,0.5335725058203845,0.5356867049028433,0.536354616117681,0.5321399413742177,0.5340170164242883,0.5284782811512716,0.5219584826411782,0.5169014058878088,0.5121913700617876,0.5133492482791919,0.5089724428270457,0.5121158114287144,0.5202028243474331,0.5188771383155506,0.5246248369531236,0.530882483706265,0.5400835717246373,0.5346905420555632,0.5227436454827579,0.5206864719589843,0.5243010667251637,0.5174776274399236,0.5120752978450236,0.504537883535331,0.4983457764798517,0.4959198946268402,0.5007873616442765,0.5048513230716695,0.5070542077557473,0.5021402692155774,0.49730065330485973,0.4923072586726277,0.49330543046049624,0.48794560401035697,0.4865539867856009,0.4842569550530332,0.4779568290197901,0.47330452267096534,0.4736773813485943,0.46554822629914017,0.46248876793049065,0.4684046003121234,0.4730140267144297,0.47149752340261825,0.475727567572184,0.4726534314844025,0.4682461702365047,0.4698116143614862,0.47480401146405093,0.4843248917709628,0.48904171004229924,0.4891730438513374,0.490238677474551,0.4988682769813148,0.5022042211604327,0.5041696013952293,0.5087284525203569,0.5052033577451092,0.5068860572007847,0.50518534242888,0.5079029003190667,0.5057019295759958,0.5139105575785298,0.5095541024256033,0.5126578010725455,0.5156278423794762,0.512800768952627,0.5095622659347463,0.5104282813317955,0.5069713021347287,0.503491507036415,0.49546993271619544,0.4908645892678142,0.49146956321973523,0.49297678278922924,0.492612941345337,0.4955193822052632,0.487108452645486,0.48381669069139427,0.480656786639475,0.47484402387339597,0.47679179019375334,0.4797123697389771,0.4790195120337037,0.47793382365375686,0.4715611087349429,0.4642565556124744,0.46201421345960897,0.4579840005856448,0.46047218677816654,0.4595210104664578,0.46578351885346275,0.4692418787093578,0.4618793375579885,0.4594787228903207,0.45512247565231634,0.4481284473315343,0.4525652343124697,0.44889376450013246,0.4469863166377115,0.45341840150030305,0.44359835758757377,0.4391964884320495,0.43146222434435155,0.4340926145821906,0.42690542874192255,0.4174508744716162,0.40976065078175994,0.40601025492494136,0.40621499179009934,0.4068158484650701,0.41018317598909515,0.40625462036986826,0.4095903867820269,0.41320540785504534,0.41616189598223,0.42084403756464267,0.41903797950194743,0.421440979856154,0.4237297607536782,0.4182435206094057,0.42702033610016665,0.43031673986261565,0.4425350015270048,0.4442637887213515,0.4506704174100001,0.46261740482537417,0.47299317363401994,0.4813761836055818,0.4873500633350795,0.4998558739327647,0.510204190294291,0.5183984613345759,0.522087821959611,0.5292731878637686,0.5311361407078248,0.5413135657132312,0.5423373637389648,0.5516220757795259,0.5500579512249855,0.5580123267424412,0.5624747651572319,0.561742213266118
0.4775652018685031,0.4821079154622529,0.4842450963379792,0.480741259722394,0.4816805131709564,0.4839160637081164,0.48984888996485915,0.49779502582349755,0.5066405005299772,0.5213540777050655,0.5294166024416274,0.5323538568932142,0.5373379884099746,0.5340187101867028,0.5291001432998298,0.5310460891363405,0.5275557703482162,0.5218132866306521,0.5151941669331842,0.5119295806160435,0.5088418558687389,0.5065761381624355,0.5082059651474343,0.5084296487207144,0.5155460434135606,0.516043756743355,0.5165705064534959,0.5270593144550325,0.5381280841937335,0.5253950644698325,0.5185237261983926,0.5148861179909098,0.5100135573350492,0.5058629728473394,0.5050014258730622,0.5053007495252625,0.49983768794999484,0.4991267126389208,0.5000375266244199,0.5053653033810753,0.5046345139802401,0.4993230283307374,0.48770342744543754,0.4910730658231374,0.4926351573400654,0.4904963000353225,0.4854522053854498,0.4836491758663195,0.4859391715196765,0.47495454107611035,0.4685657359952447,0.46336507716273206,0.46303650662537765,0.46630832306113273,0.4685608409114897,0.46583639646225844,0.4679785772408868,0.46360168488508025,0.46418634714376183,0.46478696766385186,0.4717393847552292,0.48096157472267026,0.48687509974502197,0.48920944555934454,0.48830347550377523,0.4905795354385188,0.49165710265526824,0.4991834904945056,0.5062840101483559,0.5005774820028122,0.49657330868058935,0.498574037252377,0.4982239910994731,0.5029811117495113,0.5016733795249948,0.4981184860821273,0.49848008289058515,0.49966295415048056,0.5039505756208729,0.5072115419469104,0.5068322305741958,0.5035278781134803,0.49693159002120946,0.49167166657508077,0.4877373987279962,0.48668140184221503,0.4819803736253271,0.48981807170555275,0.49084357732045264,0.4897973711601395,0.4841808890203603,0.4772154557082587,0.47378141877453345,0.47194374476373097,0.4743311132219414,0.47547337372298487,0.47255708672695185,0.46691485397326565,0.4578511425603337,0.45838411271961443,0.45689992314872535,0.45506077969718917,0.4574593899322166,0.4577382491426347,0.46177824293986475,0.4525011112897903,0.44252959510069045,0.43462610214016406,0.432709674209056,0.434326081485503,0.43494972578500257,0.438088757480752,0.43859756688932594,0.43418578586064493,0.4260773251289377,0.42205917524808606,0.4237935605947308,0.41704326130971586,0.4093630509660569,0.40292412244836356,0.39901341661662276,0.3939379258713882,0.39415639057874413,0.3992217935702568,0.3989380261839956,0.400904939998627,0.40792923968113265,0.4101451023767671,0.4102221185157277,0.4106329104191693,0.4180055010072969,0.41224085371945796,0.4133155983820303,0.41990980640009945,0.4314386171066518,0.43716152740998077,0.4431180229474568,0.44819247663864503,0.45932022945563855,0.4683388071900872,0.47448161356344,0.47960378709332946,0.48947761912338306,0.4986352918272202,0.5092863798265164,0.5125549104231785,0.5210800255882673,0.5250960180845988,0.5310232869642869,0.5385724543694754,0.5446578225638224,0.5418866118356527,0.5442125885944836,0.5470871373728862,0.5524150796257545
0.481652689481939,0.48146627721607904,0.4799333938387541,0.4822406532567815,0.4830846894672719,0.48180704508355987,0.4883973951511004,0.4984744519969121,0.5053791673518334,0.513626592936339,0.5262682374442208,0.5307982080122964,0.5428024520140797,0.5351481383946349,0.5309745392589623,0.5294374336583242,0.5235034432507191,0.5205774907567841,0.5133011843478109,0.5070497113687442,0.5025040732149691,0.5025590931234655,0.4972308813561056,0.5040267070399362,0.509292678993236,0.5126240400800544,0.5155102370776765,0.5251550346187815,0.5317065271962677,0.5278392157899023,0.5172580339383628,0.5135755370455102,0.5053711261111953,0.4990939255025068,0.49698289697756504,0.4991892373520838,0.4996658011007357,0.4969675653223933,0.496269144807319,0.49561697785424075,0.49979557240428346,0.4913378930208087,0.4882582760444163,0.4827085952849817,0.48659642915996076,0.4833400408603401,0.4849175537973423,0.4887112256413634,0.4826867717658024,0.4812672789858648,0.46937863546187325,0.4715711416668372,0.46561171792361783,0.46766104171670503,0.46501038572253334,0.46116446698313784,0.45602206455266014,0.46109445831923046,0.46719929591914816,0.4706367419070084,0.4725328662415137,0.475179708987329,0.4789644780484609,0.4829204965775557,0.48897332727335047,0.4900955285768239,0.4905483435725739,0.49446001115445,0.49682331812202524,0.493880628658016,0.49163668309846775,0.4918485058046101,0.4896204437383204,0.49089310298957356,0.4932465502125493,0.49105941045353163,0.4897745395939226,0.4973238332687614,0.4997044536278531,0.5013770951337145,0.5061468571087114,0.497551480461911,0.49429542758914724,0.49152030962975163,0.489226465816726,0.48097213266931393,0.48036377463845503,0.4834721616565666,0.4831412978066695,0.47585564054468726,0.47502387666529633,0.47523331261006607,0.47157041910760195,0.4700095971938573,0.4699426662707062,0.4683730565539181,0.46294111860503667,0.4628268489644089,0.45849650699393457,0.45258919715053564,0.45562858638498865,0.4501500423562126,0.4517814105253413,0.448031445959618,0.45002583490708825,0.4444700845856558,0.43522601994863996,0.4269788348674389,0.42276249779748926,0.41857847622400135,0.4195774402148321,0.42308584189736714,0.4209325024305457,0.41708378322689726,0.41415857760975794,0.4129743693032009,0.4104136238741338,0.4053220874639571,0.4003975903499036,0.3954871418391049,0.38760226620038424,0.38702455040848366,0.3834497379657121,0.3829508742357406,0.38691491960199365,0.39178700039203457,0.3992386223826719,0.39992603239215335,0.3999688565997697,0.40946049015413566,0.4144309877773417,0.4100620557303904,0.40816412673373137,0.41936343759528266,0.42859845732229906,0.42994621103501746,0.4403023672204161,0.4430903207055849,0.45423233160279897,0.46146488942311753,0.4735714235285204,0.474947656950351,0.4844864665396982,0.4864924227530644,0.4947683786884908,0.5030143354593865,0.5043661552704202,0.5166689996216107,0.5229307085366013,0.5235793295275659,0.5267686884806438,0.5276434729323329,0.5316120520476263,0.5386975793010461,0.5430504539977836
0.47869172882067956,0.4763899955262952,0.4728303043409242,0.47434826312963096,0.4794194137968164,0.4841062837350928,0.489623781162506,0.4918204098055513,0.5004504837799292,0.5086612753236573,0.5186431676753377,0.5334112883438697,0.5485486270391353,0.5423867320378853,0.5381567220972365,0.5288573331848598,0.5232097276394969,0.5206399401777636,0.5153816419598355,0.508885522497635,0.49810873506748016,0.49798446234709803,0.4931682657962868,0.496697330335318,0.5012048179424587,0.5086765992741251,0.5150998909743728,0.5262308109516514,0.530627893361924,0.5265221927740441,0.517724817543441,0.5044384594025901,0.49512422976636244,0.4945132601454613,0.49365328951206267,0.4949310878749427,0.5011780129895005,0.4942638566195113,0.4922124740028347,0.490255025921886,0.4892607395785112,0.4879290639579855,0.4825813861382088,0.4805220517333962,0.4767147780182195,0.47842882352146077,0.485174186984616,0.48362457067541964,0.48492554977750696,0.4777062951718049,0.4755859031928745,0.47588280095836744,0.4721398179615688,0.4667924029961754,0.4680860387394551,0.4587982531082035,0.45061546610608394,0.45521548208633716,0.4654684889330879,0.46603827148972826,0.47073489487311865,0.4754821224173036,0.47721401136037905,0.4810563326138072,0.48305160454178103,0.48752228316023233,0.4916849991817006,0.4908358276989726,0.48738805767272153,0.48834709955887723,0.4886619005970798,0.4867140358351528,0.48656437105155914,0.48300431500931096,0.48127121310426396,0.4833149205364869,0.4825939595253932,0.4905670000690946,0.4936411439042287,0.4927066241291233,0.4986577586415233,0.4907278038726936,0.48789187644395116,0.48338751985213824,0.4851220698735049,0.48011455313620205,0.4781370150821072,0.47599080348867845,0.4695401234926269,0.46728902734482863,0.46998437932313136,0.465282345544933,0.46534300040022897,0.4655070023471984,0.466671838557493,0.4584357909776157,0.4566609013681719,0.45491930398955915,0.4566703918862295,0.4515101288240498,0.45229959357060806,0.4496250778009412,0.44024257340419554,0.44200857473147964,0.4404696888847265,0.4342623649293921,0.42576118627607273,0.41980454466371636,0.40987787322110114,0.4125172502463105,0.4108211852336346,0.41120867206359274,0.4053417205914345,0.40596928584681347,0.4001896338916362,0.403000811925353,0.40183949928178775,0.3958224728747469,0.3912030778791527,0.3815020896120622,0.37314725037207297,0.37438293912078985,0.37776261660433513,0.3723283008458587,0.37100351391255443,0.3807621071852707,0.3846120403531592,0.393529448480235,0.3964306475211999,0.40356649488237994,0.4071882625666776,0.4086876662755025,0.4083310338697516,0.4176125398178513,0.4221209233523577,0.42929918888768465,0.4340344835199376,0.44149666699798873,0.4473078981453287,0.45585175077164,0.46836800731083605,0.4731284361502416,0.4729532217877617,0.4786812747248806,0.48238294249734315,0.48988617077518015,0.4933386486960259,0.5007366328440711,0.5106456195476367,0.5130726590138995,0.510602151573173,0.5162829006704259,0.5243663206965499,0.5257251106335457,0.5326559916024634
0.49007862552007225,0.4809417309588761,0.478651450350523,0.47825608715363394,0.47779288767987393,0.48289534406771356,0.48989296248116754,0.4975490974633651,0.49634687107956654,0.5077792644888115,0.5176182077755207,0.5349627005759369,0.5495750453643624,0.5373483616411524,0.5377863795934061,0.5294291381359508,0.5246174703048132,0.51778196782169,0.5101502756020414,0.5030806580643936,0.4991867667422969,0.4917653771593025,0.49326118902094107,0.49374351977190367,0.4971298909447626,0.5013193240896752,0.513088893520251,0.5182765115372012,0.5256007671507379,0.5158954044398779,0.5101119227360719,0.49799934900228965,0.4869915977092368,0.4933141520832554,0.4894594155248071,0.49592313756964224,0.49283811926436133,0.49118308861750837,0.4920310279099112,0.48674425602364046,0.4886622337815434,0.4825998093493596,0.47836094840670107,0.47640180071863586,0.47528469899726444,0.4802673376539232,0.4841073406772601,0.48786171800934064,0.48286637791682907,0.4800358020528559,0.4786639898390492,0.4747873199438768,0.46975916714280225,0.4688119651927627,0.46783103362378003,0.460178197551614,0.44975610565206076,0.45565036062711295,0.45724558544991234,0.462443721410558,0.4670447437696001,0.47036386561933463,0.47026791235507764,0.4732060774132121,0.48204900307430926,0.4783262781058221,0.48503961581886645,0.4828623200621775,0.4824271742102531,0.4796161842676841,0.4796199109193069,0.4832107970439831,0.4848370085675459,0.4791105094943522,0.4767054668490882,0.4754306410754778,0.4739661085973349,0.47614251437906935,0.4799477221888326,0.48169565644470214,0.48512983474252575,0.4850600295124495,0.4826214105115248,0.4811589148793666,0.48095425399610925,0.4753288942288816,0.475689400721314,0.4671674223282358,0.4602540154664103,0.4594808456003431,0.4547739756860009,0.4576966638017913,0.4523943726357551,0.45423335955492655,0.45739382070440326,0.45065730521354697,0.4500829939127465,0.450165207008924,0.4475635082173779,0.44785538239166794,0.4455887469165791,0.4404213737816173,0.4303832362698341,0.43020109976668786,0.42890528053796206,0.4201257156911433,0.4103326630054564,0.4085864286598558,0.40094023794525685,0.40111791614722503,0.4032405679538117,0.3949219982668987,0.3912971889259565,0.3943351601930873,0.39240032235995226,0.39249003682057815,0.39470114799838013,0.38424861838530916,0.3777427672187332,0.3757307631364184,0.3706277495424094,0.36545239674438185,0.36872483907046183,0.3639981583061893,0.3625212959127884,0.3690338590938826,0.3805824536936658,0.38072910615763605,0.3837858023866502,0.3886959914203666,0.395152287353695,0.40261932511723886,0.4052001460841071,0.4126180281025103,0.4163514749277384,0.42403371736118567,0.4334528778965455,0.4456769545974528,0.44955780061727485,0.45855784284095147,0.4672642725957034,0.4666875406683303,0.4698682426324489,0.47265946337424747,0.47487006014755856,0.4781878804021344,0.48730215029266116,0.4944879358245527,0.49997115657075225,0.5045709418893747,0.5049819841083367,0.5071402756957097,0.5148751190109877,0.5162919178030609,0.5189634884188243
0.4957410478868999,0.4932726692307732,0.4860945334914822,0.4810469972214219,0.47380550658927245,0.4823226619802527,0.4932453110126633,0.4961841483442218,0.49757127157310854,0.5075307210150394,0.5224048365390793,0.5345866569726812,0.5456594157666078,0.5390702616736781,0.5307042872870896,0.5267517904046852,0.5190429798113766,0.5185016536760314,0.5111600520194839,0.5032948063979663,0.49525894753258787,0.49296372948062733,0.4912075451619497,0.4952371588906013,0.4924488653706584,0.5015599831017743,0.5047555091833851,0.5132647552207166,0.5254354036937526,0.517163603708595,0.5022029372233776,0.4948681475868936,0.48260617682345536,0.48416027483491436,0.49072004406270303,0.4867257954732575,0.4896586341098552,0.48674751674322675,0.4851155441619825,0.4898716608454204,0.48914264053913403,0.4870536985290494,0.47852544506832295,0.4802392635404823,0.4766655304000624,0.4806298085254454,0.48679032622664364,0.4876259702858122,0.48619927078202335,0.48456281292670367,0.4777643273176348,0.4738771272305177,0.46373435061100277,0.46728029145894673,0.4640621362699101,0.45963802795982545,0.4497224980852249,0.4484613836044411,0.4463081828713629,0.4531408851691411,0.4612876477318189,0.4632723121299727,0.46403761003301425,0.47005940229701637,0.47584682435281267,0.4727056101309376,0.47560713067320776,0.47294642326884845,0.4722752286965824,0.46994544346809164,0.4693499476320985,0.4752558476485575,0.4764689989292839,0.4754913241548836,0.47069443734895505,0.4669123354463819,0.4672633320829424,0.46829172114571327,0.4684561823986416,0.47159550564536895,0.47348496564738385,0.47885610217471714,0.4811902381898524,0.47862009566303687,0.4800957317917559,0.47381888183824006,0.469227794325787,0.46064783005298143,0.450671066372736,0.44829591191382706,0.4443847582728955,0.4456478435209569,0.4444883514309159,0.4459287091857249,0.44349399017732116,0.4435981923180564,0.4439425889889928,0.4468587687817813,0.4436176676736304,0.44067699865706084,0.43760834508460766,0.4329815253044574,0.42591485751305147,0.41869615058895987,0.4123703809248365,0.40340818878418766,0.40145912043790866,0.39777444352700886,0.3884918067797735,0.3921264496847946,0.39004199469686096,0.3859576679774799,0.3825754936018376,0.3792045680144538,0.3790170304076762,0.380749523488226,0.3819767468470183,0.3741676078190194,0.36356408343309554,0.36408715137095166,0.36538060386151733,0.36363747522187884,0.3571453291515931,0.3572181937552363,0.3529763220324998,0.36072429029397446,0.3702318347016443,0.3690709076313481,0.37072895612468004,0.3771399698302657,0.3858421834983902,0.3928885089670273,0.39566933669756543,0.40613261303565207,0.413697243918648,0.42571029019364093,0.43885088529699184,0.44238146577207316,0.4524456686556994,0.4599064796183125,0.46333614634681547,0.462550560675166,0.4657680575547315,0.4668613980276591,0.46918331578118344,0.4782630122095344,0.4808596232485428,0.48673070860587236,0.49076862596494136,0.49412964062973697,0.4978949175750895,0.5047760719956751,0.5073725853058141,0.5075120007296083,0.5110236116538727
0.5005177648302589,0.4894658573074825,0.4854258369597345,0.48308557895640064,0.4758176307166192,0.48602309739670513,0.4981950279355278,0.49639900669671333,0.5033083005689816,0.5123598462862218,0.5258133909281337,0.531565369351797,0.5423043063113411,0.5382026573917448,0.5337254912673941,0.5289414143688411,0.5206662858523575,0.5105473188390603,0.5084910737931302,0.49790588235322164,0.48797176749420096,0.49324908767485137,0.4883620207564418,0.4939085550414488,0.4874536318060577,0.4931466218284265,0.49761339797726595,0.5130399851572292,0.5184978195997728,0.5122320217090615,0.5000853739314417,0.49500378833937714,0.48475870285663564,0.4867373886646156,0.4838874578587013,0.4878342275159211,0.48718227944698533,0.4790138045509923,0.47630066883404604,0.4831676684071187,0.4843376739931472,0.48509058297855945,0.4754240790488395,0.47715584115220966,0.47729186182169364,0.4790033126292156,0.48522943062661306,0.48599924051800203,0.48107645206000454,0.4821572343958204,0.47678406416254704,0.46859465402918427,0.46651277339152614,0.4651408864041927,0.46078047951503387,0.45829890228138537,0.45210787934581115,0.4438132772137216,0.4440493150995816,0.4495606415929424,0.4524087735242535,0.4573335646870971,0.459233422433061,0.4605859336612947,0.4718063336937555,0.47194368120213587,0.47153739968897,0.4682645696992991,0.4708167544048828,0.4664565592205144,0.4701428080800407,0.4658163328779418,0.46981664981889815,0.4627479647863094,0.4573559222398734,0.4577083347032824,0.45815850115917756,0.45995165631296847,0.4597690750966841,0.46119003137652725,0.46628806399911016,0.4696108754432597,0.4707739955537637,0.4717435094035215,0.4721642149385365,0.467066011981627,0.4607274448203998,0.4496910706945534,0.4406653922612001,0.43820645165505046,0.4372172627802966,0.4406864851419567,0.43505609393507044,0.43835729771583676,0.43444885909258363,0.43631717567396067,0.4399581950445402,0.43196042642535454,0.43167240913374594,0.4272461287667179,0.43044192985153945,0.41766311268217715,0.4130630732376713,0.4050512653337691,0.39604752668858983,0.3955900364526792,0.38562616643647407,0.37870166118288273,0.3768635850438603,0.3789211986905296,0.3813558798249814,0.3755232056965854,0.3735001542704393,0.36878987547307945,0.3659491938077048,0.3709654542149623,0.3645802819197706,0.36219893268174425,0.35601156075074797,0.35986317672335977,0.35519396038281353,0.35335665398630345,0.3464481642446647,0.3466627775303278,0.3446749704226635,0.35149327349148,0.3614829241137343,0.36517839536907715,0.3658268285487128,0.3699589953724738,0.3800796238846241,0.3884799681795214,0.39156100980140723,0.39750364972400337,0.409036346092042,0.4196486701458379,0.43105940286549516,0.4391596136135831,0.44456344613576265,0.4491015625133319,0.45964159587247383,0.45781789128064915,0.4580057257700363,0.4593247506714486,0.45983760478667224,0.46283259922431913,0.46983930097204074,0.46906969793820474,0.4779824238669081,0.4790424042583533,0.4867224009513796,0.48748006730989873,0.4927376079485954,0.49855679304955725,0.4988900608155616
0.5023178715137872,0.495285769043719,0.4863475437372045,0.47917033263624226,0.4757172470027054,0.483480154276406,0.49652095231180876,0.5034315155960092,0.503883244264767,0.510910327845299,0.5228942438864329,0.5295355102097592,0.5424339207708675,0.5382873219736395,0.5298259179427207,0.5299856557072478,0.5248100489740606,0.5146307359565885,0.49954262373176295,0.49505147999166865,0.48450169767578394,0.4867614968465701,0.49219772374844,0.4865606053316587,0.48587319035298976,0.4931475716094336,0.49648293521017056,0.50591055914153,0.5116396562931349,0.5109618091212821,0.5034498903435521,0.4953311225758882,0.4832623482976523,0.4830779939695019,0.4784086100742643,0.4758763269397897,0.478551855522395,0.4764301739883768,0.47432771024986853,0.47841033203078454,0.4833050303554889,0.4812313302701113,0.4773671434454776,0.47900469472336027,0.4806047521880682,0.4789721131338563,0.4843835038649136,0.4817595572701815,0.4815328097572739,0.4743206258888389,0.47044394697621456,0.46749154106497953,0.46422096660737616,0.4624750225174037,0.46129927273032234,0.4552547870012068,0.44888802541482026,0.44694984405000937,0.4385928463221745,0.44243640103732507,0.43968902280218874,0.4468215326834301,0.4528715004061743,0.4579589577345039,0.4617455856462795,0.4650786962410372,0.4680882544320165,0.4653956732419329,0.46274780944557625,0.46255725787015667,0.4653428308501809,0.4651555309545529,0.4613259329982351,0.4522501198524235,0.4486024038118574,0.4457776321068491,0.44610418622997694,0.4470048711172962,0.451203973968566,0.45295016742510813,0.4599758912003493,0.4597063201987567,0.46444361316537586,0.4655509167706149,0.4676512553996771,0.4630026144542424,0.45193049819228465,0.4460490033720484,0.43601670988461944,0.4329546482219837,0.4341507080228092,0.4341058993400308,0.430296671847181,0.42661037876631963,0.4284249635287965,0.42765486296484,0.42935063001575524,0.42755481199826495,0.42032858553214064,0.41767846812306686,0.41893845473614866,0.4097334085814161,0.3976295304594407,0.3869131694466399,0.3789933576710116,0.37973795500564894,0.37596443260708495,0.3671597362744969,0.3598523539623596,0.3603315910301432,0.3657576389776571,0.36633281679818985,0.3687825475922541,0.3615484433133805,0.3571221615453822,0.3570391281376311,0.3537505674358778,0.35342599815692066,0.35404397008998345,0.34986711889311334,0.34601315766730634,0.3460170361305975,0.34209581860900795,0.3411486551921498,0.33520975038827255,0.3439876452243756,0.35065106050047545,0.3557589188974319,0.3578746788279567,0.36682834100160866,0.37451264305874327,0.3835610677285169,0.38901723710200004,0.39552107549637466,0.40364527434567654,0.4139030359667866,0.4298496877080121,0.43520837848284044,0.4357939074503931,0.4437683734148998,0.45259704888364977,0.4526302776255427,0.45440128643891603,0.4568275821609308,0.45239763848289916,0.45633176384586416,0.4552957791624623,0.46127206046980396,0.4632535546159973,0.47093063455806494,0.47336466440219266,0.47913583423517514,0.4785402105185153,0.48022082764955415,0.48605764529214224
0.49829658417933415,0.4939373779749172,0.487226580639611,0.4830435163655071,0.47352269412017967,0.48249349439286304,0.49284607018597787,0.4959508803647385,0.49769010779207534,0.5111728958500014,0.521080367779918,0.5267818900425506,0.5426898041021365,0.5340585252685397,0.5243934615161254,0.521898047212351,0.51621999660276,0.5085897551238535,0.4992748839720161,0.49129896732574324,0.48641309660611787,0.4865862201740459,0.48843018177461206,0.4825542368365459,0.48387810526659014,0.4862899428235496,0.4949296616928073,0.49899207833885817,0.5104779823434514,0.5021497108216499,0.4982430058744423,0.4875149232633283,0.48475271218558436,0.48493715163239787,0.4821631921144242,0.4834140305107504,0.48166887168335376,0.48414573772978564,0.4829123391655355,0.48065370588721096,0.48248762569051695,0.48014973103616526,0.4778790305148033,0.47871795414187196,0.48044026455739597,0.4738277708061626,0.4800924732411554,0.4744739235045257,0.4748959123353622,0.46928274883588467,0.4633061122838038,0.46295711811005325,0.4639547948626103,0.4577360929827018,0.45390268939727924,0.4469791273643209,0.44367234714292403,0.4357766198196811,0.42901028603675784,0.4342037791453342,0.4288067866491736,0.43799423659889164,0.44295941658064786,0.4440063488249788,0.44856078528841525,0.45423971244262973,0.4543913291227131,0.4583996314617245,0.4533884227945504,0.455220465938325,0.45931899276194776,0.4563986984691886,0.45307146219240607,0.44594420890004216,0.4480272986655571,0.4432758129377089,0.4440466341374077,0.4438654590229208,0.4462000996172492,0.45068350315462663,0.45497920780927714,0.45729475410620557,0.4545692285947819,0.4577135610501983,0.45328014599603855,0.4505012005648531,0.44605036542928556,0.44331626239380495,0.4366861821340267,0.43442394347100277,0.43065345092502366,0.42510010543448895,0.4220972111383418,0.42267136231655517,0.4239641957183404,0.42317647733581626,0.42288179162371525,0.41914247894419254,0.4113520304155457,0.4073153399350886,0.39923287696410237,0.39290315766527034,0.38533389013163677,0.3794135179976264,0.36509593653708317,0.3654896404298052,0.3623448448512353,0.3539921689015895,0.3458840111800114,0.35302311720298224,0.35275036099181395,0.3584061031516207,0.3574749885256859,0.3535087925359892,0.34662103841226616,0.34384503835713426,0.34442490105539225,0.34534994482814546,0.3404145810093577,0.3418748935329203,0.3346135197037949,0.3383903426308958,0.3411583298225702,0.3373842188642028,0.3330562571514233,0.34072986731497196,0.35234928526726594,0.35592302849585944,0.3540414334214398,0.3634804238593091,0.37026076114067835,0.37617679510132807,0.387310448160502,0.3955872711077813,0.40348182934465804,0.41218447313437734,0.4239868083622619,0.43007677686498413,0.42973804109388597,0.4388311801821948,0.44531645943688736,0.448733009239789,0.45160337148371377,0.45050999144226894,0.445443022173276,0.44625417761840325,0.45326348513309506,0.4570785514636166,0.45890839476989154,0.4640469627555815,0.4707901303882962,0.46670437268543014,0.4733992496419454,0.4731660985431891,0.46926778277855724
0.4970223640023753,0.4930639577115643,0.48545785837632505,0.48040446362606815,0.47729569774468356,0.4803662035060538,0.48730250773429923,0.49405782814208726,0.4982059652361533,0.5082114848621344,0.514151071209702,0.528664853382766,0.5373026607629708,0.5269114031467117,0.5205980338513142,0.5179165541696332,0.5132881113434636,0.5061914276262274,0.5010847301071146,0.4967372999772119,0.4910879864925155,0.4874141551342774,0.48289948464932114,0.48067943348250913,0.4811173761702376,0.4874798441062236,0.48742382123817934,0.4967916371223412,0.5045342215211215,0.49387029710917885,0.4873711710061109,0.4860184253820089,0.4816778643007583,0.48268334139433117,0.48579688379420494,0.4881018992080049,0.48689956952595614,0.4870773360527082,0.48584438933533075,0.4802423213524359,0.4803111598127524,0.4802052964268669,0.4746777062447152,0.47279254438385543,0.4755761909870567,0.47118100473203833,0.46878354908133557,0.46934090426466313,0.46400894243422386,0.4613805298227698,0.46090632374554125,0.4621444487597279,0.4592799855624125,0.45174775927376576,0.4462335230171216,0.43984966024718986,0.43512183654346476,0.43380047230304025,0.42619689033925656,0.4204160148959335,0.42079766263902535,0.42093857431836984,0.42656536458144184,0.430036130487013,0.4392983091883896,0.4439907429367274,0.44713745044112685,0.44365300152667186,0.445647338136715,0.4443302353900414,0.44686777247162623,0.44784749437719074,0.44220660137470946,0.4438637075582234,0.44066358670196565,0.4436198764659391,0.44161286046632925,0.4408226703533054,0.43856126494854686,0.4420805418003471,0.4480138641597532,0.44716115711685483,0.444476641895278,0.4458573055152249,0.44282494272730355,0.4408989316208135,0.4372471337616368,0.4378730137701766,0.4357884175354228,0.432958690309648,0.42739588173190124,0.42486241905671807,0.41655814412876413,0.4153719827809315,0.4176697992239233,0.41684591595313425,0.4213956786378641,0.4102800043095722,0.3976721922209635,0.39342713009185726,0.3833776953632299,0.3753828143030159,0.3726815794201946,0.36330392174988674,0.3573600180031993,0.34696098869084474,0.34294104181265433,0.3398439442599685,0.3372630588441606,0.3351597626430611,0.339112507341871,0.34004196796242014,0.3479505715086053,0.3392922103841024,0.336758001744924,0.3390692789523349,0.335203640436642,0.33492789433551745,0.33045189370913136,0.3325878511676626,0.3280672237103039,0.33106242526697693,0.33917858020815916,0.3329464292379253,0.33265766505202904,0.34256430556383993,0.3513329324169384,0.3529113164482744,0.3531463821450342,0.359214504810806,0.36165969570799145,0.36792686942689173,0.3794245494302632,0.38801864786168144,0.3991979817034152,0.40286653955903,0.413087413669012,0.42465024990065336,0.4293976016532058,0.4361025236123225,0.4426907865192459,0.4423373576295777,0.4461768701569742,0.4443676789805078,0.43869527286799526,0.44246590615912756,0.4488320761709697,0.4494036457001181,0.4495080606462581,0.4551045528596427,0.4616008772278169,0.46338529396739875,0.4612206834557172,0.46044375306634083,0.4566823697964698
0.4880978348008945,0.48492097079387975,0.48225736443964856,0.4822184322528745,0.47766718613262465,0.4814721282398102,0.4884157094058566,0.4914427501206136,0.4992202813033568,0.5019233568832238,0.5103791064430779,0.515928387771509,0.5307235334070006,0.5223085219771746,0.5169953399729196,0.5076810189909937,0.5006514849099132,0.5016958991657394,0.49205223517040225,0.4900920768349024,0.4883573098106201,0.4847574121134377,0.4795154562230461,0.47552830449128336,0.4713709553895796,0.4790480136358355,0.4771697320128811,0.48456839793499584,0.49405812866178367,0.4861350052489157,0.48436694505198924,0.48374418673315883,0.4838896951549544,0.48470698531324286,0.4854135525147731,0.4889290384919465,0.48524287841657904,0.48601705269866946,0.48014055310430753,0.48348346866823516,0.4789578609256445,0.4797815747287146,0.4799753681973868,0.4777381369019119,0.47951321440582356,0.4742750003640965,0.4684288181377046,0.4674728619840387,0.45829574902528963,0.45519350328308844,0.45234541230486536,0.45173650515550895,0.4498121820423056,0.4445347558726472,0.4388437904556315,0.4379945801275428,0.4303148467372646,0.42499944368106973,0.4243935902815453,0.41628138726443625,0.4117835467715176,0.4143852417297402,0.42279385972875566,0.4233517926977378,0.42688304759926554,0.4309314048843387,0.4310243666292315,0.43216103722630417,0.43751208961047733,0.43808570049769363,0.4393850897847676,0.43764177631835144,0.4357710113849146,0.4340994343797828,0.43760379305720426,0.4393531030454487,0.4365213362220573,0.43648332523629324,0.43681875752302063,0.43835278297836033,0.44169245615854147,0.4406697054683358,0.4455599079206429,0.4427468555700871,0.43652198488375904,0.4322263683241094,0.4346620554962123,0.4342113386323897,0.4369775769721595,0.42818583266319926,0.43020501549391726,0.419423939068076,0.4103706898299488,0.41120252778483596,0.40890614720425944,0.4109053900401837,0.41064164139065995,0.4015142488861147,0.3864614298540061,0.37843242443107517,0.37400208854578576,0.3639993194520674,0.3637814444815189,0.3519330131621215,0.3465683541606192,0.3427829453749941,0.33060878327857207,0.32608131953923697,0.3257581857736892,0.32801762089129477,0.3290800940747085,0.334838567259678,0.33801634324530294,0.32988076012625994,0.3262122827264127,0.3252126035506562,0.32312737503196803,0.3208117538397531,0.31979698006868745,0.32239561216097656,0.3276005796766825,0.3277318941852106,0.33468276883799025,0.333610334390072,0.3304015958155128,0.3389087237954859,0.3492659968607718,0.34988644424957843,0.3584057444533009,0.3575095544830589,0.36152061048619727,0.36486599975540757,0.370370889889517,0.37649044994662656,0.38895358985027517,0.39550633216521536,0.403896953468832,0.41078009358659634,0.42042928611578906,0.42546351550958816,0.4309872798789064,0.4380015593204894,0.4338420120227266,0.43666350367788775,0.43520565831390884,0.43514591735123354,0.4451816271496104,0.4472548479417831,0.44392564904367365,0.4502338602837353,0.4550650798737413,0.45306132262633453,0.45205813912316245,0.44738349688425316,0.4463320912694057
0.48246963899170997,0.48250576891827907,0.4840869583774189,0.4778961525587292,0.47713096437306307,0.4835537504066337,0.48871978397506155,0.4931102062098642,0.4987696613827714,0.5033055872126543,0.5066928768526905,0.5119416403341913,0.5195930608891338,0.5178071286717075,0.5110617908965127,0.50105326252931,0.4937185912895457,0.4924751094444193,0.4863518131824997,0.48750564662437623,0.4914411052790017,0.482242845585209,0.4724370506744597,0.4707961299631343,0.4657691724899328,0.47089614649633543,0.47358505272590207,0.478266347782771,0.4848197286235156,0.4792586021393589,0.4805315114874966,0.4827441906392116,0.47965769642855843,0.485406105616157,0.4869408421545602,0.4840680511183252,0.487587420666922,0.48571601697206757,0.47869237304274065,0.47749964483586166,0.4797523431944243,0.48106200084255374,0.48139503155622954,0.4779316739582839,0.4764778385414368,0.4695290197119041,0.46956568334564913,0.4605775902049342,0.45633260067841686,0.4489919782974121,0.4480758793451165,0.44592762824735904,0.4457354322153475,0.4417961063144318,0.43725918629389227,0.4337873198400817,0.42735341138989463,0.4279522717317192,0.4226282473939657,0.41043536522776775,0.40493106578479504,0.4101258033510319,0.4122524251183418,0.4116531156326853,0.4153614910511001,0.4165542862350296,0.4176178701096389,0.4236671281953002,0.430962278596882,0.4279746881742668,0.4257081037382107,0.42625945034721374,0.42829058261392716,0.42957828243278373,0.4335403385910581,0.43321804250252643,0.43384359748365603,0.43662508895519303,0.4342117510551562,0.4392341910647619,0.43939514373985417,0.4418552905525091,0.4425715516194312,0.43447272600264997,0.43179089630400774,0.4315655413290552,0.42827707327143305,0.4313066404004345,0.4347116742826118,0.4312560580273161,0.4267452389292041,0.4170739491972781,0.4109203244156551,0.4067818245515504,0.40329767073600015,0.4054381802903927,0.4022177416696981,0.39225971826070144,0.3792232289410126,0.37249169156700884,0.3606190228705119,0.35774979016499137,0.35082705355043237,0.34822434509520744,0.3389137274198389,0.33273162940341827,0.320120586752608,0.32001809100075834,0.3148566136160888,0.3199513396862819,0.3223627313588078,0.32412106954429915,0.32500624220188173,0.3213611449727628,0.3205799653023016,0.31667663951605324,0.31261382217267614,0.31043412462752185,0.31233555426049975,0.3175692873956224,0.32220802501273993,0.327151222716607,0.3261258274184312,0.3246158170627737,0.32749161536646515,0.3339571910358638,0.34081071513836103,0.35294782117681606,0.3581363700841245,0.358729701290965,0.35990650621784576,0.35969480548618643,0.3627703599623015,0.37284047183322827,0.37781022581755774,0.3894220217404449,0.39725764181616935,0.4023078393308201,0.40639770943318304,0.4138573323450722,0.42535283720445916,0.42748269960489327,0.42582501330295874,0.42741003477891604,0.42884174655086327,0.435877665635693,0.4375281997108393,0.4382176115026419,0.4446748837718403,0.4420418684215035,0.4449874407272895,0.4426155979991558,0.4414515287466586,0.44492924199499917,0.4425969763808369
0.48655437739326635,0.48182524615996136,0.48272540642523526,0.48204999455695,0.4725686097485759,0.48224390717371524,0.48783067224006815,0.4930243563293833,0.49801754319393793,0.49880427031513785,0.5056288153864772,0.5105993997154513,0.5164369837685323,0.5120610204762495,0.5078559682587865,0.5003986296058898,0.4969814590913748,0.4934291299148315,0.4844711541366132,0.48758107906784587,0.48882381741640085,0.4752031188391496,0.47289182794323315,0.46795638785351423,0.4657594519236899,0.4677015828232785,0.4647991453982979,0.4719280857662252,0.4778956247361855,0.4760471163394472,0.47850984482956704,0.4765756506581565,0.4828416608764657,0.4845666027837515,0.48369989000765184,0.4831454878113122,0.486322742048477,0.48519955642436075,0.4826456768132372,0.4817551215602314,0.4748719655466722,0.4804114097129822,0.483259831846968,0.4823863227829658,0.47745667868053765,0.4734956866494472,0.46804352100914753,0.4632217212251742,0.4564839541898702,0.4537223940140582,0.4509940390309331,0.44859691880144337,0.44247190304753214,0.44083637485541893,0.43246398198296726,0.4310846497093295,0.4244352535232575,0.42134963637916184,0.42142150985173543,0.4107495119528311,0.40059551407915367,0.4045315009684066,0.40638961651281275,0.4133024296886198,0.4104350190921739,0.415032278377289,0.4142689885106596,0.4224856438647752,0.42606663301151476,0.4245550007973339,0.4250858918273603,0.426087584133862,0.42581850342536615,0.42630377628324995,0.4254135146221144,0.4246756865933832,0.42240930984586894,0.42455940537585124,0.4293937256387271,0.42988985356882004,0.4394820850326954,0.4366509816748051,0.43091491610321997,0.4307923446903208,0.4256821774673116,0.4270169041833701,0.4243488314312364,0.42366570733984044,0.42598883589990644,0.4216266341296129,0.421080025828731,0.4128925943371095,0.4123913519088904,0.4089474413265841,0.40170747229695025,0.39905819826202404,0.39444521402426247,0.3827473173260517,0.3692313399716751,0.35820884863425834,0.352353248231288,0.3472744514937647,0.3438887325173455,0.3418133984951255,0.33924855944755045,0.32977386703022243,0.31577312212420366,0.3124837888076088,0.30775254867032203,0.31452848868712735,0.3177967834649863,0.3154162019932497,0.3109526065206854,0.3153294648556592,0.31300155823888065,0.3089569044915285,0.31267914938333086,0.30712988446152906,0.30981731521723144,0.31316470706102295,0.3139355975726631,0.31326952856035944,0.32185044316733336,0.32227508566442986,0.3257425935062394,0.3304588321366393,0.3352946232135726,0.34681764373511903,0.3508184296111239,0.35453796852136443,0.35515625819713936,0.35371328506014726,0.3627163602297708,0.3688011327047813,0.3734823983010297,0.38276918430043394,0.39447683408835976,0.4004016361294685,0.4065401369098963,0.41041411834382585,0.4184097579308677,0.41328795564519666,0.41385653606420547,0.4158832592671972,0.4248131523296475,0.42478834629952217,0.4247257310291598,0.4264126217333498,0.4283049344517285,0.43692767540701294,0.43940117478140206,0.438770134059809,0.43455004252126583,0.43595952985128616,0.441731008141398
0.4883632794445085,0.48284480034503424,0.48198329909683585,0.48090606617417186,0.47486455780748776,0.48204981280851644,0.4837472117608329,0.4960768909234378,0.5017346151779717,0.4982566444710173,0.5000179152202673,0.5115339897847369,0.5184665682829953,0.511284324777997,0.5093309964656386,0.5073936323368695,0.5005783945306732,0.4892684838491491,0.484569166333337,0.4815857258064003,0.47964883478232445,0.4772061116119878,0.46866751851012084,0.4639073405637825,0.4588438940820317,0.461018384265504,0.4605404669002402,0.4627368889237881,0.4670080429076968,0.46837319065831834,0.4734628480993033,0.4737098617492091,0.47930388655697,0.4812976922923231,0.47870757911423145,0.4795860589134269,0.4797244119409456,0.483625555204371,0.48632747975491336,0.48061526562824447,0.47661298520156903,0.4785264817003359,0.47847832240642796,0.48073773112607127,0.48057609786682837,0.46955703643018465,0.4648170199442931,0.46126405505610174,0.46051908655660595,0.4577372637687859,0.44893648605631087,0.44843350196336546,0.44205987346233094,0.4381789883166066,0.43084717266803324,0.42372401991847997,0.4219303314802955,0.4160172990907605,0.4136923109492014,0.4103251552133994,0.40044015212259076,0.4044844740584702,0.4030233573218714,0.40915967161403743,0.40992970188448125,0.4103545652860822,0.4083121946414803,0.4112145369883956,0.41979474197361705,0.41785631687692343,0.42109956619409716,0.42099898212382564,0.42652441897315846,0.4206143895749427,0.41689890981556577,0.4128543811286895,0.40927473923169394,0.41583982692498866,0.41801790424460755,0.42459564204217676,0.43285518930053957,0.4295224169575213,0.42429597443745126,0.4242174385530002,0.4248228906844191,0.4241463186107471,0.41686887019450164,0.41478121694299935,0.41630154536107344,0.41155735949567224,0.4092266833981686,0.4080287397487351,0.409193147370751,0.4044639434347072,0.4008399514853413,0.3924605836813738,0.38498553442260885,0.37653874116370983,0.36495708051217335,0.34991501011535364,0.3413849542306575,0.33421372704099317,0.3328641269073221,0.3333169399240169,0.334648725615333,0.32635590334237674,0.3175999106021714,0.3144126110416695,0.3075999874823507,0.3116619426311937,0.3123929569769901,0.3055532239655865,0.30342862634471207,0.3035407792383632,0.30748009298980994,0.3082171429706938,0.30828481397292445,0.30304265226503696,0.30032691366499237,0.3061491261347398,0.3061367030985415,0.30630418877984406,0.31184860214334226,0.3171040675157755,0.32197456130237917,0.32828224647097515,0.32997365025166336,0.3377985950212774,0.34997970941446366,0.3483835231892393,0.34542922208526233,0.3505335933250677,0.3590770371335407,0.3647342464071209,0.3735165098937469,0.3837051956394536,0.39422201106069155,0.40066468369994435,0.4046607992780659,0.40834306707679696,0.4077856197486216,0.4059014588388343,0.4050220959225945,0.40751173445685274,0.41677733416308843,0.4194333355572757,0.41662122421510667,0.41429594769424444,0.4185309530681506,0.42271333315440307,0.4299129417237608,0.4277476458412277,0.4275556572979788,0.4319801453115411,0.43519283960905997
0.49395977016293063,0.4921984836895149,0.47981655191895944,0.483008039907943,0.4800005173930991,0.4775106932070141,0.4812581486459521,0.49389705079598184,0.4970769797478202,0.49866076607979715,0.5013248011366329,0.5083232809965939,0.5141355790829021,0.511012059613134,0.5033176203008628,0.5039817988907317,0.5010989118644332,0.49336222689908954,0.4820764065813303,0.47838717227728794,0.47617331701950816,0.46809733789023733,0.4684296547916634,0.46367770802060276,0.4619174120531873,0.4585480344999429,0.45453155039614596,0.45364016573943566,0.4525001822498402,0.4594612140289012,0.4611749012002522,0.4685108693873203,0.4702695841371109,0.4710028941487458,0.4770300649466157,0.4783169208541921,0.480036908516011,0.48038723986980025,0.48309581191426726,0.48116816865313766,0.47958128488480795,0.4802038440302059,0.47921115934315867,0.4833423981920588,0.4778143524784198,0.4772318034007852,0.4732279914353902,0.4706486522905158,0.46567099479453133,0.4553452161360743,0.44908175793292554,0.4437029441079134,0.4337072058534396,0.43508092103610674,0.43274712556793277,0.42318564889606486,0.42210187381265973,0.41912447654136176,0.4085115428109552,0.4051165178703212,0.3973326908268695,0.39984743211892826,0.3981405725726935,0.4027711694568815,0.4035030342866276,0.40518679293398846,0.4032289696601565,0.41382102857995484,0.42072328495741945,0.41842176237474077,0.4150067157422385,0.4190739714558278,0.4195150907029674,0.4225966081550058,0.4161125505642256,0.41106608284746765,0.40299384169319613,0.41095038003235923,0.4112689127637605,0.4220181704136678,0.4249555935412227,0.42247346554419907,0.42209544919731184,0.421542936419234,0.421122669457457,0.4161210997926859,0.40775336681004476,0.4067739154317623,0.4038878085360488,0.4044394018757905,0.4096393552445361,0.4040243027628862,0.406197848899204,0.402653044509867,0.3958087573592356,0.3842555768866695,0.3783543900918232,0.3684308111815647,0.3544290437193917,0.3413700550972027,0.33379986407018347,0.3324233231660634,0.32921146151092334,0.3344846682845464,0.3270152731666755,0.32270985775436656,0.31786460455216364,0.3080272022206886,0.30059247724255234,0.30225905047906526,0.3035065459573868,0.2972317593957212,0.29381490686597617,0.292413452586942,0.2963407223804241,0.2952127926725965,0.2983685544906589,0.29683262963756046,0.2973006507918235,0.2984704304764741,0.2971576336631432,0.3046868745697711,0.3028958772090882,0.30830771451795386,0.3146662523999152,0.31944323210719866,0.3262594300103833,0.3325137489296082,0.34501679973031824,0.3449881125202659,0.3476773381490927,0.34806548320443365,0.3564563544740693,0.360787980375415,0.36743557790833126,0.37949471812227004,0.3891890278666134,0.3941271048088267,0.3948187438248335,0.401018547052913,0.40062011815143317,0.40015500533789466,0.39971150625584384,0.405068936882269,0.4090572833400104,0.41111702470246236,0.41097635231661067,0.41004797898072365,0.41146421122172133,0.41615004499967134,0.4182823754973375,0.4234783746733138,0.42916001437441553,0.4307822799455227,0.4325535177278134
0.5020999051579896,0.49099879253804785,0.4838245266064016,0.48081341006852973,0.4782148578831578,0.4808434920866487,0.4828745306185088,0.4874266801484515,0.49771858619571635,0.4977913344847298,0.49925731122153727,0.5044734438489793,0.5094144490326863,0.5033252996266774,0.5042367434997759,0.5072452167941568,0.5061667471215852,0.49404745333301786,0.4855880958399092,0.47796658126049274,0.47511746935267285,0.468352063087599,0.4629540310939246,0.46578082649673763,0.46199681212471855,0.456502186830976,0.4536328891551489,0.44537755753939173,0.4376700548901692,0.4437729158703774,0.4550395530704501,0.46122433985040795,0.4664779763814775,0.46565333945463444,0.4718688833967431,0.47790534444919336,0.4791898211052366,0.48378597004318385,0.48319287543394207,0.482751362402096,0.4811935049629325,0.4815156894799642,0.4856906543355895,0.4852822927233271,0.4815737343637595,0.48463970120440275,0.48075881710533097,0.47682059507972013,0.46837359106517124,0.45630563701315013,0.44934923134573296,0.43563620403835857,0.42860994021446447,0.4311557220543512,0.4293493644681059,0.423936432302013,0.42254009456284636,0.4167751627819504,0.4092099752376233,0.4013182896805441,0.39128765138149246,0.3913990803117009,0.39095277944934725,0.39587434265575067,0.396210622708778,0.4000788624547224,0.4030668393855883,0.406848896762206,0.41761796925328487,0.4153944324803628,0.41154001425044345,0.41351715846843207,0.4192378361509499,0.41570267679981715,0.41375308684304046,0.4077592578165083,0.3965170629235532,0.40323319582661826,0.40843110538027194,0.41227590120914315,0.417859319948867,0.41799352530016665,0.41642419215569026,0.41362365492390835,0.413662778294738,0.40512876558339367,0.399312053959013,0.3984859807403192,0.39761957342059934,0.40210687745162405,0.4043801542564491,0.4043916055409552,0.40242322480210685,0.39651909059460233,0.3865618518749834,0.37372096516274234,0.3648601376155248,0.35524380139008005,0.34560403759058617,0.33650463453711615,0.32679276962524234,0.328324854116463,0.33233234410454754,0.32994418022157823,0.32564468047957873,0.3189849633862107,0.31694224494403433,0.30977352155498905,0.29649799098605595,0.2986072588569854,0.29393593734662093,0.28614062197987744,0.2852841471186623,0.2844141862814722,0.2826788037508203,0.289554995251256,0.2930930971037095,0.29276866199288337,0.2918858805189063,0.28941506195427047,0.29170266402662715,0.29661598062441435,0.29888997890570174,0.3026491113781088,0.3076476049508917,0.3159342972314295,0.3244787431723292,0.3271067397709046,0.3357520066008042,0.34061566823331674,0.3442256923222886,0.349043257418213,0.34849543809761574,0.3501555443612414,0.3586992766474564,0.3667724248285339,0.3803729506031086,0.3822606558249541,0.3862816518346841,0.3905188357364974,0.3925939081063906,0.3889216726808615,0.39220156220084995,0.39301452692607003,0.3995602085704657,0.39842908710655006,0.40024744698633746,0.40073077210000446,0.40110303455657154,0.40278576754995926,0.4100038859863223,0.4180242425600796,0.4272007418361001,0.4293071603114734,0.432516576827786
0.5040790903300589,0.49491348539408797,0.4846848881709516,0.4833058452295896,0.48519249968286865,0.48917796863747187,0.4860063555781828,0.49525020597119634,0.49954060757791324,0.5006284407464427,0.49729272506416466,0.5034505183870215,0.49977438282915043,0.5023609559116611,0.5058658771407394,0.5045649388355748,0.501045550788631,0.499745038586773,0.4858444456378193,0.4839991017672059,0.48198979008295584,0.47071895624727605,0.46532429029722,0.4601640734747041,0.4601579620060086,0.4553603649230518,0.4473768137168127,0.4412593721548765,0.4376101457912204,0.4414332886151417,0.4519618582695282,0.4590261031805474,0.4653857995009013,0.46610208072687415,0.4733377937597691,0.4748306305441372,0.4749526349782363,0.4774897184275194,0.4718946460323384,0.47732552637655573,0.47563382558618966,0.4741260303929405,0.4787387854362487,0.47603466208605627,0.4716650126948421,0.47269164916714357,0.4660557328545002,0.4638088846408046,0.4609646528217152,0.45351075638653127,0.44061461499470345,0.43681627917487553,0.4300642732023672,0.4260988934447288,0.4275569808719588,0.4197009184773602,0.4153514157049075,0.4141790681945119,0.4065984891015091,0.3984579745622399,0.38421415130796815,0.38814733464848544,0.39862960631216593,0.3987089542343404,0.3985395226484816,0.4013863575251124,0.4079473577317501,0.41385643943271055,0.4173944581860454,0.40893663679985887,0.4101844806395684,0.41444616686708485,0.41555093242984453,0.407448861371327,0.4022236380927326,0.3938001469596343,0.385495723124828,0.39470224841000373,0.3981062429207612,0.40305691271435834,0.40747901678203774,0.40687203557707946,0.40326736561715026,0.3985782206476188,0.40003993717171593,0.3943865360145315,0.3965407142862943,0.39259312257941403,0.3924205817548165,0.3928219304275159,0.3920157669155488,0.38829859216019535,0.38901941661679484,0.3824608804671223,0.37205365696718223,0.3649716410878625,0.35507164948282216,0.3455028248210027,0.3352267487434269,0.3336123317644685,0.31944369705144604,0.32549292809380564,0.3233951176766537,0.3247230820169533,0.31864564148193614,0.3174468321298265,0.30712304848609456,0.2964499772357925,0.29295006543356966,0.2898411215643607,0.28248793016265367,0.28478845919602064,0.27705123745535687,0.2817440135651193,0.2802640409722911,0.28545593294442534,0.2844961534330749,0.2796988998739142,0.2856322656901301,0.28145125843200736,0.2869211159888751,0.2876102642648315,0.29547681183484703,0.2976478480317609,0.29971448977256476,0.3032085317070981,0.31915775560028325,0.3220410864797332,0.32948290402157565,0.33332954491896283,0.3398211898643921,0.3396301069888818,0.34062993179991186,0.34919255100944707,0.3539671065987763,0.3640201580356524,0.37221922788175216,0.37193911423398207,0.3694908100386236,0.3720966292286223,0.37907480977091357,0.38377997963045124,0.38648360551395394,0.384704110500613,0.3913203899699393,0.38617562408890455,0.3918107859380649,0.39185828592351307,0.3943426510699224,0.3971769938548462,0.40689894580238367,0.41033919259768087,0.42249405600917334,0.42294254712383883,0.4223886426958724
0.5086232584137949,0.5010121175454944,0.49226368498575024,0.4944859266591012,0.49118236548181377,0.4939446385526161,0.49381632233175676,0.5028491063658214,0.5074230729151822,0.5023121287796869,0.4999107652338103,0.49643009942416677,0.49381175246446957,0.5013902941912118,0.5029927934504586,0.4993861224665941,0.5028156749696202,0.4951458316067834,0.4923238450147993,0.4884168599214158,0.4854444339875385,0.4737821974524737,0.46586707512491354,0.4612448006503245,0.4563082418209051,0.4476952968528806,0.44560002518154895,0.4358378982023177,0.43294462635483555,0.44416893902113674,0.45205091999289587,0.4603808679712748,0.46235348927413444,0.46624433162104534,0.4684660883318465,0.46901673737515853,0.47076124053176366,0.4706134924430086,0.4658452025505993,0.46793789281454445,0.4658551016966186,0.46775442470190925,0.46705225559472496,0.4623010682363208,0.4616670268950226,0.4595655360116489,0.4558449576715037,0.4550404001613476,0.4536572526466533,0.44357747227260724,0.43352899741674333,0.4301181017870984,0.4279684379181893,0.42555145336961864,0.42140472920023125,0.41967160347457116,0.41450243558435074,0.41325864016505676,0.40563023524249864,0.3976603208135102,0.3836045868294005,0.39089256643596587,0.3999834262595127,0.40243333295238987,0.4031157979513682,0.40398728430851133,0.4106456230371504,0.4072223587991404,0.41023369239249463,0.4124197347783342,0.4077297935503333,0.40554182717183956,0.4079273425136306,0.39925951296861983,0.38582307908887664,0.38684410772617145,0.38142739689203736,0.3878557252678397,0.38871162281640503,0.391752202763535,0.3917067722893982,0.3882117280593686,0.38971249732840973,0.38758702577915316,0.3865252261801449,0.38758598832011715,0.3903997470065983,0.38522862686408266,0.3829569682926299,0.3838432597057506,0.3811962212992146,0.37678426351630173,0.3790210955839152,0.3721075037575161,0.36459440845686814,0.3585139849761342,0.34660849402473365,0.3403535350901721,0.3300738012853236,0.32330586305738807,0.3179248044967163,0.32075179842989276,0.3170770844239992,0.31349343367350174,0.31301768208369507,0.3090403241499174,0.3025949720320629,0.29236132515131197,0.28265059552607386,0.282531203624142,0.2770917058733268,0.2728452950748295,0.27560829842177204,0.2785090041726383,0.28405605528291245,0.27409078315021074,0.27051761153770576,0.27587668284955924,0.276996711774514,0.27835554754151265,0.2760314739991809,0.27915220079320674,0.2859988389382708,0.288674090682903,0.2862130782442044,0.298810471369992,0.3075768001090255,0.3198717957414992,0.3267814166040525,0.325329177215403,0.3299446956238811,0.3308403270175803,0.3325262981360183,0.3387011440384464,0.3442468360141765,0.35584590124493254,0.3605496767294143,0.3632438581819147,0.3593143354711263,0.36039066578457407,0.36274288828528534,0.37297733046420517,0.3788874753873243,0.37586448147785045,0.37772010719615917,0.377891788000838,0.3792235982347582,0.38382150564078826,0.39053090552473246,0.39540872836151353,0.4003559391458295,0.40762930250804424,0.4170069639809273,0.41984586803507,0.41775447756597867
0.5096581941245665,0.5021593236724006,0.4955774156678746,0.4953075508505407,0.4949085159550066,0.4967122142416403,0.5018556091931651,0.5028649480060128,0.5110804835649209,0.5037730789507495,0.49947046865084915,0.4963147770551624,0.49538447568393296,0.49457897313476396,0.49642030599270026,0.49572423043818614,0.5002584347516602,0.4952652477331177,0.49389558096848274,0.48913699268672933,0.4880211048830927,0.47897049215928067,0.4692147408920913,0.4671297631891543,0.45573671358825457,0.45096567361625567,0.44871089355500604,0.44305734071857766,0.4355918291750888,0.4450439228401373,0.4484705753261342,0.44838237338462117,0.4563115515656466,0.45767720386965544,0.4636047637662899,0.46272965983573594,0.4657497146916528,0.46636361570886264,0.46349703114332114,0.4610264609743322,0.45682978518011247,0.45397483839055264,0.4556464051337891,0.45312310624220875,0.4578947865780313,0.4518707666569802,0.45351127887622517,0.4500853042702219,0.44395042766158366,0.4383880783470027,0.4247450299133975,0.42660978632437985,0.4239247733164997,0.41811934144027946,0.41531350234396197,0.4089180019230542,0.41395109225156,0.40552772120574354,0.3977013599412305,0.3915574167305265,0.3831466534726595,0.38730282464891647,0.3939554942053881,0.40009141569379875,0.4017749471642123,0.4077692028386874,0.4140277222089938,0.41263408005729374,0.4081130189338907,0.4019247632216092,0.39811678835054976,0.39628059093829604,0.39517770403929103,0.3915710471883373,0.38355498624745343,0.37642631892778916,0.371890824932602,0.3741011251502526,0.3775744937848095,0.37146678859824156,0.37665512510425603,0.37517347385050737,0.37912507713474175,0.3802979324523594,0.37937452017239987,0.3769123085695923,0.37810044836849277,0.3721549813732396,0.37270170837005656,0.3695843885424492,0.3695119044853529,0.36776145278947453,0.36700144204756474,0.36333137168565954,0.35440810737853023,0.34504537274257974,0.3384198404501093,0.3330504618897392,0.3269573077497621,0.31729951294824044,0.3135648810209297,0.31280851777392604,0.3152111459613183,0.3117339888108259,0.31043111563068027,0.30042471544600663,0.2967081357713088,0.2884117633429888,0.27692964144538634,0.27916178497173944,0.2717015082086068,0.2731163503740207,0.27120718210303074,0.27321296869127104,0.2758378306688059,0.2684133070275295,0.2677184708444597,0.26846634298416866,0.271644816913152,0.27248988504290445,0.27351400474013515,0.2783467232264944,0.28121969058816004,0.28015638216005045,0.27906252681961097,0.2898962643513556,0.29742120003113337,0.3106044689524021,0.31525970649802904,0.3165205705908534,0.32215840525622036,0.32085782837019183,0.3145375177300757,0.3256718596397222,0.3316727507826682,0.3408190288648639,0.35146024693028854,0.3486620767460035,0.35142699022818663,0.35371425448865174,0.3558844945653856,0.36165799923764513,0.36136159507635085,0.3656029593873729,0.36794990650749604,0.36936358698403116,0.37641198660338787,0.3768606374808367,0.3814069644148311,0.38880975539716706,0.38957352761232156,0.3977201819212928,0.4043586046516083,0.4057374978365027,0.4073785279978219
0.5147518889672179,0.5116073930157231,0.5034405249740832,0.4966031139895428,0.4961870101846071,0.5019112987991523,0.5053794834918317,0.5117409001316202,0.5135092507672234,0.512842131221469,0.5060549887569276,0.4995287178027633,0.49173160471594146,0.4914203437557236,0.49009462678564075,0.49151742865076214,0.49354633106838397,0.49433765765819543,0.49474578054349705,0.48904085615280257,0.4836791071633501,0.47608982663567195,0.4744809196985718,0.4701239060626529,0.4599081389106794,0.4600062419268759,0.4553927012405925,0.4487639222775873,0.4380879082280275,0.44180709005252283,0.44467216360499384,0.44618264496615634,0.4481640244945545,0.45650461429378386,0.45940489592618644,0.45937412674917566,0.4568970023580751,0.45623102786967984,0.45864678157316574,0.4558212161810376,0.4502555819874775,0.44764931468558233,0.44526664903769547,0.4493139485164623,0.44819234482917897,0.4467497326886302,0.4466472045755986,0.4441473028626073,0.4375923578541545,0.43066324894469793,0.42088287623335846,0.42056972724646563,0.4141294891140512,0.4103936085806747,0.4056145977787383,0.4035592937586706,0.40701718240315066,0.3979223565345109,0.3948421188349675,0.38756203049786453,0.3835541636350641,0.38899984528440007,0.38894371929525123,0.3954372529541665,0.4011270904848127,0.40499500129750865,0.4114727905620097,0.41267172685872655,0.40828105762903955,0.4009843989266003,0.3918096131330571,0.39072540204003353,0.38775050701267627,0.38608469791184147,0.3815845752591682,0.3692710373223572,0.36261156506595155,0.3612719499883899,0.3618846030687155,0.3579924628002441,0.3553428880429761,0.3611421244944172,0.3620190009991688,0.3662820388206882,0.3691538924254502,0.36862503459093454,0.3679588793985276,0.3635521536118391,0.35847184782310987,0.35459880965983304,0.3571440600652225,0.3581913600902805,0.35674250517134565,0.35511187758384144,0.3494310670592615,0.34086672710546817,0.3307077492706286,0.3263129028799717,0.32479531122126404,0.3135157721022081,0.3056369527910195,0.3100094181993984,0.3093047188388565,0.3040120478128449,0.3019216058099095,0.2944348848659096,0.29399333599620975,0.28775510796550235,0.27644335464737635,0.2708493164675471,0.27036249869733464,0.2676019484555621,0.2713830600691048,0.26864028740229556,0.2651226786765031,0.26417532654574166,0.25970059405406604,0.25743667826357364,0.25924821097847595,0.2647188937790777,0.26708689402992986,0.26904036469057263,0.2738232995054588,0.27351512575342607,0.2730051047497507,0.28004545333729675,0.29216920646517497,0.29819976313063384,0.30624750446493826,0.308627167778729,0.31051081240892237,0.3086735558649534,0.3033275075919921,0.313558213547348,0.32333440060729085,0.32671444711367265,0.3357491742069414,0.33769399635005415,0.336832877954294,0.3403658837615584,0.3465332653794377,0.34800476520534773,0.34562680729532974,0.35052190384824056,0.35178446140808584,0.3593658226009789,0.36935364956219685,0.3728248692783007,0.3766472593819436,0.3795667155365063,0.38539194181786574,0.39130821205568056,0.39524186067473915,0.3938894336963164,0.3946161242763077
0.5203965171909123,0.5143218710635489,0.5126705745489405,0.5039792585832206,0.5038317373135435,0.5052952882713533,0.5027274283867884,0.507950053982626,0.5067515504216648,0.503000652940682,0.5014680064377479,0.5009110880967045,0.49528812820072154,0.49465922685189645,0.49506617901232436,0.495440053288098,0.4911494782820864,0.4932695562335587,0.4923806374915139,0.4861307299211863,0.47951765770774785,0.47970888146772106,0.4746391816318672,0.4677807817259202,0.46316684471760744,0.4537213964067918,0.4506471677033354,0.44579365724153336,0.4382334175692441,0.4395171459764529,0.43553186373839764,0.43944861417852776,0.44879820250277974,0.44749702830802307,0.44789957113960305,0.4516966181665587,0.4523776701463576,0.4508851075268666,0.45440463827560923,0.44859009317692555,0.4387028573665492,0.4377508439468385,0.44104859489950443,0.4395684883094295,0.434785775421619,0.44224426770945546,0.4380853974654507,0.43468946755188054,0.42792480679106915,0.42018301141668574,0.4174749188679882,0.408213650027209,0.4036924092758884,0.4029627337811889,0.39763489840681454,0.39706967680969507,0.40444168407553466,0.39961766064651555,0.3929051789793908,0.3874542474276925,0.3873918478571567,0.3880829069326407,0.3876102287721531,0.38995377351708294,0.39304978830315207,0.39564002056424624,0.4026767089484194,0.4025270893644709,0.3999044595745859,0.3882237778056881,0.3792933642026122,0.3797940132687184,0.374834000600411,0.3695927032308753,0.36571188986729075,0.35803596878605265,0.34988122883724304,0.34996915642818954,0.3442151605676535,0.3453304429322457,0.3486844347886406,0.34947496135248357,0.35352454778154274,0.35478635228790056,0.3525008827437988,0.3548651546480993,0.352732827986915,0.347657273674458,0.3451036159927502,0.3440498464176818,0.34171547316236317,0.34191852337320755,0.3383533730194932,0.3377577918857766,0.3386119461941997,0.3248611954475029,0.3178203886472193,0.3181819901114813,0.31274056107365866,0.31005148260847815,0.3004556552312786,0.3071584094161184,0.30795091407613834,0.30079898582463843,0.29387124919759916,0.2962964994098747,0.2907976307652036,0.2821750463191797,0.27439686440234773,0.27406512156479473,0.26802029193439125,0.2718865418532335,0.26379757545097265,0.26371822986930055,0.25720867184797674,0.2574430390828259,0.25428688335623884,0.25259998912923887,0.2604513200803551,0.25661226498965367,0.2605258473594499,0.2639500763181555,0.26188684530403616,0.26937990676713935,0.2685871981052457,0.28188901218332085,0.28935215014536747,0.2937547942524009,0.2991854344935829,0.29756364886563014,0.29727843359599665,0.3008443813130784,0.29732771448901324,0.3028700285500511,0.30889856461995235,0.3181941846055919,0.321856351612521,0.32118045992692634,0.3251264342060035,0.33369094340931565,0.344172326390893,0.33736032932895565,0.3334021935103024,0.33960180002586154,0.3496146267621081,0.34824428771501853,0.3535782195339127,0.35907434194585935,0.36518917724228994,0.37176160278848436,0.3754045561922308,0.3816604246249492,0.39088058486647503,0.38607720332942397,0.3932709495736699
0.5306219833170953,0.5233136480110123,0.5191257857952495,0.5167558828150485,0.5110220026021027,0.505058749689016,0.5051296467528598,0.5021071734063626,0.49799807987713735,0.498926315209872,0.5016207554105325,0.4979684885737654,0.49826401125730757,0.49722761505074003,0.4977794162299098,0.49402902943524624,0.4949214200893603,0.49016648220481807,0.4891653765768954,0.4852221214778221,0.4796790518324683,0.47563359024926977,0.4723404081941493,0.46671015505453567,0.4626793233149147,0.4553797435717287,0.44925674657258247,0.44063610038544787,0.4375837163348763,0.4381378345738488,0.43324880724105547,0.44114328468204095,0.44296777758562256,0.4422769070315047,0.4426329995494365,0.44489469619223976,0.44407500982741543,0.4415263100760311,0.4446592463333174,0.43924849339430205,0.4287556753230736,0.42741465311783133,0.4310305359307842,0.42930847904388114,0.4278944186795295,0.4308020569470074,0.4334921279037495,0.4229399222037142,0.41710288048511335,0.4144408646560671,0.40998458239376917,0.4064345147663116,0.3994079796179471,0.3932141454330088,0.3904136527607979,0.39291084960947176,0.3987552945595993,0.3926588375522169,0.39332746566598786,0.3882818867732792,0.39027844119189425,0.38418085039865935,0.3834362899171501,0.38119377845322683,0.382738376181914,0.39117530761201325,0.3961955666841381,0.39370317223034684,0.3852092449412168,0.37757651061826797,0.37212494501675736,0.3666089534071888,0.3644355122928172,0.35952626259191856,0.3533760492905832,0.34194605701885844,0.33687025129456594,0.33093116235402614,0.3286629054650591,0.3305551257320333,0.3389450268848043,0.3366647832063982,0.3408305753514108,0.33864928972062563,0.33870020609618356,0.331781077477968,0.33179438334486416,0.3281656952607996,0.33029743529782357,0.3305511215274073,0.3257312955746046,0.3270841593251335,0.3216850569867972,0.32396247000194234,0.3208734258951772,0.31355689055919733,0.3099097107520543,0.3051875009836421,0.3073175281849948,0.30408320525626464,0.3020005842282258,0.3028326746551385,0.3031582030773958,0.2960781981284338,0.2884518177999048,0.28751063095932117,0.28959324349352017,0.279685906225463,0.2717012664561978,0.26812112095922136,0.2715215379338263,0.26742945140147145,0.2615214065989866,0.25869427024339714,0.2518479744544944,0.24916377773101403,0.24949839116160466,0.25225776835543495,0.2551940283480919,0.25710909629169815,0.255897972213855,0.25840010032048005,0.2569194536767812,0.2654201309963737,0.2710612368164254,0.27909584524004394,0.2826319264991878,0.2863295968700957,0.28835381841246505,0.29110594720731703,0.2909039703285319,0.28954829499804363,0.2893327339078792,0.2908662396267664,0.29821868118320105,0.2975396117177607,0.30320952850631855,0.3122699800419951,0.3181722488331675,0.3263447588847244,0.33521535716983547,0.3333129014599891,0.3263346253827922,0.3325691813550679,0.3421785429100569,0.34549969620927556,0.3428642545335527,0.34626078066102006,0.3512424282085462,0.3593909098309787,0.3690079937788242,0.3760192742007881,0.3803561533355701,0.381029266543654,0.38672380202804363
0.5361953693914289,0.5285141064054198,0.5223465768318494,0.5185428540837532,0.5145380575878225,0.5159645321395889,0.5085794565611826,0.5047277440038199,0.5001345683402096,0.4958571768712079,0.49930338935491075,0.49614941967226767,0.49649610205263733,0.4971188756312369,0.49753238729920185,0.49501708623585655,0.49819662808632126,0.49263197663119374,0.4811554053922024,0.47709501769003154,0.4755188817631988,0.4683609487926389,0.46677147913642786,0.45886858476085585,0.4558301977879612,0.44902217590467197,0.44921449654036005,0.43687485035477,0.4353082997173632,0.42837051442831003,0.42981597268871835,0.4297863634055079,0.4377302212693644,0.4350025707768356,0.43820416505908494,0.43611898908381663,0.442533399058003,0.43645844010404833,0.4378456603600043,0.43013436251416953,0.42355613178848145,0.42535283973320903,0.4215088078262425,0.42371634524334095,0.42095272358257846,0.4239925735370793,0.42582330146853475,0.4154225907283117,0.41384588200180616,0.41020320315780356,0.40518022190170117,0.3998685726360483,0.39113096660437635,0.3899987045460691,0.3897022677983587,0.38774010935372955,0.3853898063573996,0.3887290183376959,0.391417118711505,0.39036068532846596,0.38568748817422815,0.3846084626545251,0.38096580602923846,0.38187878980963613,0.3798255638714846,0.38206100027230494,0.38804587811956615,0.38276257986139184,0.37805659851131024,0.37044571248095676,0.36460068436292986,0.35329966255037826,0.34517110154261804,0.33942459852876294,0.33369592492916866,0.330551852684843,0.31970937100396524,0.32101781343353913,0.31556001947629747,0.324120869513696,0.3284810519488768,0.3229336762221453,0.3257927992632925,0.32877712890296046,0.3305303192889298,0.321840933662377,0.3190233983053234,0.317369141469573,0.311229461856279,0.31151756886953363,0.31210021368024776,0.31308730023213793,0.3106921456986117,0.30635727393742745,0.30837787820406676,0.30535756535596814,0.3076478216894667,0.3048903924634458,0.30548710059265244,0.30514005085410995,0.3021695814039378,0.3009559238457588,0.2930287869099739,0.2869755735703261,0.286371692084724,0.2799130638106615,0.28226087511109493,0.273557476702706,0.2686825682535824,0.27036483202484823,0.2644279946432606,0.2577500046610092,0.25774917052812374,0.2483623654624887,0.24556488560885306,0.2446595008483339,0.24056602949338277,0.24494917024312185,0.25105433943230326,0.2481428050197883,0.2451680565399541,0.24842197649344883,0.2527974058651296,0.2600541598447227,0.26099316016655894,0.2670155298399577,0.2690662891420887,0.2734821701003805,0.2766109002684914,0.28492870803224374,0.2810692287872879,0.28440110767446203,0.2803288694083124,0.28835902445807654,0.2896411192491566,0.29217448670998397,0.2920502122692318,0.29684246927083624,0.3056451432030179,0.3108756929706021,0.32282012478934013,0.3192125880199263,0.31881284856587344,0.3210447944835548,0.32951563228047703,0.32805453911062565,0.33283292934571657,0.3374873118599966,0.3413941922192294,0.3494640454558105,0.35429583598017883,0.3648415474602292,0.37286599109463436,0.3754958063703915,0.38524705215149646
0.5480571703060821,0.5399232678742247,0.5282455023702567,0.5226723674187124,0.5220231210367701,0.5187561914951025,0.5154527604860625,0.5034189881132588,0.4962086153658007,0.49672311247875683,0.495724085494433,0.4934036622756796,0.49577866301889056,0.4957509714349431,0.49494705557093266,0.49670257438005694,0.4961594047111848,0.4889541513908541,0.4775160013869063,0.4755785322890182,0.4697425609212107,0.4653558147314232,0.46115755130891256,0.4564956170063856,0.45230167933775783,0.45061706957142195,0.44248218981829646,0.4335626898123291,0.4291638609549902,0.4239112955620475,0.4225717598696805,0.42215623574544076,0.42817319406632576,0.4280022554446007,0.42837968050932995,0.4372017509250735,0.4424937441440474,0.4325215278738526,0.4256161634657793,0.4234799905713603,0.41470598408851783,0.4164076008637676,0.4164071736221133,0.4141065536363998,0.41273574073725644,0.412841783928433,0.41326056362526864,0.40732677389795224,0.40822337671968306,0.40869390825389695,0.4028506319258322,0.39125072361688745,0.38467166340292064,0.38639668233568913,0.3832188094349349,0.3827680166149821,0.37751713170583706,0.3804443705137877,0.38637747973434244,0.38350855797585626,0.3840927293371116,0.3818405719423042,0.38292452123081355,0.38184849695210543,0.3776038069417886,0.3813429807379985,0.38053302046353665,0.37565902718203675,0.3748336713902502,0.3659759271909618,0.35699389797835485,0.3437917678712943,0.3328297634569579,0.32556947194807556,0.31308729990950684,0.30962677685571566,0.30675307268615754,0.3015113982879135,0.3032998053607701,0.30731878110440586,0.3115626820450713,0.3146041620228647,0.31095779799969514,0.31200626685628585,0.3185972245792433,0.3090654496983472,0.30248659179369164,0.29809309297301995,0.2972519874201654,0.29979812847596393,0.30041132808883725,0.2970756404469196,0.2958986197595847,0.29713468053267617,0.2966694170528121,0.2989341049078981,0.30115423193955765,0.30096296879680823,0.3065364706610503,0.30806725247860045,0.3065722540565598,0.3001477768119214,0.28733768758135836,0.2869377082066263,0.2807558744408315,0.27867465840188954,0.2714658330085985,0.2733118018683613,0.2711652446104223,0.2647489740623134,0.2582122304417392,0.2508912256507051,0.2505348212457636,0.2463728370376404,0.2385530044344966,0.23666887884530044,0.2370165182773577,0.2365897025559146,0.2411030815857962,0.23957468447195795,0.2396235725322403,0.24406164733910798,0.24617389435065687,0.24932183694886442,0.25789055382199466,0.261435050668273,0.2601034695057602,0.2631099653186633,0.27091992960336264,0.2764866759808563,0.2755769764880806,0.2731405469210914,0.27728128348164915,0.27926022523140676,0.27685301248980465,0.27868267541607145,0.28101571242645595,0.28926593907812015,0.29081307983100535,0.29793336645363844,0.31064110564082,0.30737525595499093,0.30953157552900973,0.3153323625715777,0.31879017693698947,0.32320738429315665,0.3220204656843555,0.3233782050379053,0.3253601488776874,0.32910261061340806,0.3387412233853045,0.3512416207209968,0.3594532900935131,0.3662303446730101,0.377839350191197
0.5471447280214294,0.5434258646839308,0.5361849471991933,0.5331990968094749,0.5309893812278823,0.5208516782834904,0.5150963494957894,0.5093512486509059,0.5081261075406408,0.5056688213159249,0.5028146266894555,0.49631000583086676,0.49730439756797745,0.49457029505292793,0.4985949891678264,0.5006035883110064,0.4991973057605652,0.49441167494564964,0.4838763174928385,0.4768365889712638,0.4750749735599991,0.4728013460364165,0.46774200811690414,0.4607761641436788,0.45571625231656326,0.4483066579137727,0.4429341894149359,0.43964996853519844,0.4325962528787176,0.4284424943756444,0.42883612990166786,0.4261693055265638,0.4212710338103502,0.42523396620946247,0.4312724440996138,0.43212700373357543,0.43398533237441034,0.4289101020462974,0.42556559804497324,0.423993450901257,0.41503985527816634,0.41707185591175233,0.40967892356720287,0.4065548635689172,0.40698028769181177,0.403269187786888,0.4002138710454182,0.40166891777309655,0.3994508744123273,0.3968523147911119,0.39219294768298124,0.3854289507152866,0.38166985984927326,0.3792258453351634,0.37635426287790924,0.37313339723606964,0.3766134026320212,0.37859960467097387,0.3788285736889343,0.3855641794337939,0.38715744007910763,0.38484972404207796,0.385971457766387,0.3832325184894109,0.38101642939769503,0.38003098192709206,0.37875784945137986,0.37426855807994175,0.37114490802951156,0.36242278874586714,0.3498779434403662,0.3409485529614145,0.3299745000538551,0.32379682917814767,0.31035515067057007,0.3077921169128003,0.2951857338840898,0.29839743316372724,0.29893773573869237,0.3032981807355365,0.30637192517830153,0.30587701167705794,0.3126998977984081,0.31017370072725475,0.3143436789295734,0.30420057622813956,0.29894755853348126,0.29760454985779816,0.30021616958530994,0.29517389064119104,0.29396978685496356,0.29463603824866696,0.2928869310650081,0.28662036430588433,0.2869170791703361,0.293219170368822,0.29236365793675806,0.2971784165833426,0.29882420478905775,0.29674568938401774,0.2943309308316342,0.28761864704751716,0.28685531340457004,0.28212477676854963,0.277245545893452,0.2772445373719537,0.26977778854851225,0.266349286185207,0.26934281103176094,0.25955721182823416,0.2584990136768174,0.252648346747622,0.24932886355037456,0.24461068382000617,0.23818360732639934,0.23659156138501275,0.238308224598375,0.24432709511828435,0.24005055109771192,0.2414741078469938,0.24057688452792758,0.24074612787593203,0.2413695730632687,0.24265700964484238,0.252368057959818,0.25083733152498294,0.25207347528622776,0.2604386672194762,0.2623846948572813,0.2683201960463249,0.2688184066157741,0.27441699681920834,0.27237985638924195,0.2718128241979179,0.27309918050919696,0.2728877545625172,0.2743363759882766,0.28458660618294046,0.2896578174150124,0.29492769706930794,0.30080645028723363,0.30660243806151705,0.3071531173163906,0.30959581688400395,0.3123311738981135,0.3132345338333862,0.32038448283139787,0.3217444909143077,0.3259000190343153,0.3261241611571895,0.3347036962615762,0.3411144761445245,0.34984292217307394,0.3609977420308385,0.3654155187863933
0.5483005298944197,0.5490991379568684,0.548322359488775,0.5421587535299366,0.5352388746964254,0.525654952619771,0.5187256717456366,0.5173129048428524,0.5138073814247172,0.5110535853021432,0.504924955309273,0.497451615816008,0.49181159313820655,0.49901302431137634,0.5023100061925584,0.5050508933937224,0.501618676118064,0.49493822605954846,0.49158641445053713,0.48746563768983486,0.4819910860004508,0.47671076800379514,0.4743607967916737,0.4669611832547007,0.4581944398009832,0.4524098596564275,0.4487455092589752,0.43656548523218086,0.42983103102923037,0.43190835519278337,0.4310729301090272,0.42693171916136885,0.4201712127612793,0.42829069484080595,0.43077142420503695,0.43058362800198363,0.42903193770394543,0.42884931328984843,0.4296959051224867,0.42862478164396345,0.42062142236516975,0.41452921860376063,0.409243059848518,0.4016154454834369,0.3956058761029005,0.3911490492160517,0.3894222019295458,0.3910058195841896,0.39199227357542,0.38949323712210293,0.3854073762454654,0.3795209277841596,0.37910668815505144,0.37513819051659386,0.37250638119871254,0.3729893435800266,0.3717180839522214,0.3716908599889318,0.37799226973105543,0.3817592359346943,0.3878297904237394,0.3827762029665883,0.3842792854411241,0.37967623980835113,0.3818825696038899,0.37761572161569884,0.37060422558461464,0.3661711904735024,0.3665183449402053,0.3570812268109199,0.3461441394662755,0.339555786216559,0.32979325334643483,0.31922167144784663,0.3109114537929623,0.2983275105863242,0.2898137110740738,0.29597096673294027,0.29707905091879494,0.2937541668298657,0.29723230669861245,0.30392583236939735,0.30861359760624624,0.3030730451595564,0.3031982095025798,0.3010416138609102,0.29864935837027906,0.29786496497060516,0.2961973762822264,0.28857322494066845,0.28610041886604914,0.2827384087339988,0.284613742640558,0.28326778533845376,0.2832035854813412,0.2868399592404084,0.283419766572626,0.28837681854277597,0.2870036401632493,0.28290868847184547,0.2834248760851829,0.2863606464155796,0.28374630717110044,0.2834741057137849,0.2771989042636717,0.27453432973753095,0.26861861745737536,0.2674800659097358,0.26577041780160543,0.26115551153570804,0.25636288999401796,0.25312152619295913,0.2536595501500378,0.24462007849363995,0.24139110684722537,0.2435207703693202,0.24349860003883453,0.2466415837674989,0.24603254431514887,0.2377535217170437,0.23508876592302155,0.23772548562629617,0.23492326518638076,0.24245784992964695,0.24424463003532734,0.24541856936103698,0.24564618396578758,0.24996967489132058,0.2551240685956874,0.2575592090256178,0.2637953325703098,0.2687867354184314,0.27213799876041833,0.2707713201333832,0.2681931328064678,0.26980484264570637,0.27145180543475916,0.28181674514972255,0.28986254415849555,0.29326840663889714,0.29551864757431845,0.29703858477597783,0.30012490483321097,0.3016471052291343,0.3094787440989983,0.3130559282228503,0.31214598454418496,0.3133493296301709,0.31947527796390773,0.3258305916426948,0.3301917219797473,0.33400052863319973,0.34125505763149355,0.3437960537160857,0.3533164837872792
0.5554606451390575,0.5534002921011045,0.5524626456486655,0.5470668391367732,0.5454771670956433,0.5313523847175093,0.5218476554894735,0.5224756791973292,0.5165022091568547,0.510343274780858,0.510225214682181,0.5034024993004147,0.4940877842308182,0.49842819325772175,0.4980212710272741,0.4999496832433166,0.5002371596683931,0.492605877404636,0.48862982242347247,0.48591787374724316,0.4851974632231677,0.4769490276247199,0.47079978962437347,0.4637601464720317,0.4601049012935522,0.4554716113541783,0.44553125358800233,0.4374488724153583,0.4345129730628829,0.4261780765148706,0.4280262205175808,0.4246334216289709,0.41755360676045256,0.42702174679294347,0.42603817235363695,0.42671840415207934,0.42295232469293864,0.4293091142038028,0.4286614466847434,0.42602310709552077,0.4247005783742674,0.4167938598790349,0.40845187773400415,0.39868964816675934,0.39487039177984506,0.3890763718495855,0.38024033655621414,0.38491785574148357,0.3841424812493427,0.3798159080636927,0.382971905675139,0.38297473059556214,0.377349918947382,0.3742055028693423,0.37167273293512526,0.37167171623485545,0.37419240562999556,0.37628771751888723,0.380176367763973,0.3889853025729375,0.3921088317487637,0.3886000029626853,0.38382861976849986,0.3812835326555319,0.38058236987256333,0.3735241577547183,0.3698485279532918,0.3702321165988728,0.37037256705078553,0.3526956981104135,0.3409521944368677,0.33599349029256964,0.32052695970249473,0.3163716868962324,0.307117233498876,0.29540681501490434,0.2813926124641107,0.2858014081285224,0.28968095511813324,0.2924962205887629,0.2938116000859257,0.29752703832527017,0.3045406511090663,0.30268756763979293,0.3012361948383273,0.29407091509030875,0.2925195562653394,0.2877561269909014,0.2940360549093191,0.2892401809788807,0.2799177524726485,0.27543815757644086,0.2714406832915422,0.2775191445464636,0.27955952875723455,0.28098643181630295,0.2783175023629623,0.2825957996149877,0.2785258750956635,0.2803411451319571,0.2776863802808625,0.27912440260475796,0.2752767486621878,0.27504995069248617,0.27217548115460527,0.2677702501785896,0.2736856134482034,0.26659818624757986,0.2680155334392678,0.26434864105492784,0.2608978999364496,0.25757731006496015,0.25002841672141485,0.2427403930565983,0.24385274684382316,0.2447725915877264,0.23981150685622868,0.24307280515410032,0.24086178526196952,0.23962599955732428,0.23951067679695312,0.23895992066041066,0.2361672929309814,0.2334229193034551,0.23300147114905284,0.24028366233617174,0.23638640590739263,0.24636299592109373,0.2503405526461625,0.25428674616137764,0.25841451948992,0.2594855658501795,0.2694730051473058,0.2682042144567094,0.2690286749022816,0.27331974951383153,0.2717521231755575,0.28315729270728013,0.28513593077461097,0.29337770389864654,0.29494966589290966,0.2977343772812651,0.2964047172167278,0.3006620529397168,0.30004982430501115,0.300345056015019,0.3051974460136229,0.3135751529531736,0.31527671932179757,0.3214860716860513,0.32151841444527557,0.33223583921572974,0.3373900011325348,0.34027282054988917,0.35160626671656886
0.5566617163513291,0.5570582658774162,0.5555680548590375,0.5553928339422366,0.5501488861264757,0.543494166661673,0.5313870047688001,0.5286429533205462,0.5193828597413975,0.5144643280377255,0.5142440201662459,0.5077547983740011,0.49686862171237195,0.49409867254795664,0.49510572710400513,0.4954515715379346,0.4997437707781792,0.4980823041939908,0.4895205398306521,0.4928055320291282,0.49067368970679776,0.47814511851421176,0.46715227522704683,0.4638685088392851,0.4570567536537305,0.45004151463102676,0.44387589695368984,0.4429844460281767,0.4358197147800286,0.4253955432857763,0.4218458343940544,0.4184536049314238,0.4185388682623506,0.41945083846036846,0.42478520228717515,0.42549329267199065,0.4210033027180944,0.4227662257624318,0.42438953343340846,0.42175555183939795,0.4218445498130508,0.41100901420625224,0.40158521895501104,0.3987591526834929,0.3896489017273568,0.38409935764888337,0.37660359244247266,0.3746710045671477,0.37506494966954074,0.3769554093606256,0.3804311443634622,0.3761108239895993,0.3748037926186381,0.3790758681405072,0.37781509341852565,0.37783590653091204,0.3782787197452447,0.38251040484243987,0.38889603369980386,0.39325909684902227,0.39309071338257906,0.38678520211312,0.3814489409434762,0.3789285040575389,0.37222756942869173,0.3686426793639045,0.3693707004690887,0.3676746990454168,0.36962013469537897,0.3561318192219838,0.3387010390539623,0.3254161818036413,0.31770829416032803,0.30553781287567183,0.2997160856771437,0.2891151192509355,0.27159573844633905,0.279500475895626,0.28714727385320016,0.29078243190908776,0.2902381026263467,0.29129953372729644,0.2992237325429519,0.2957800756423951,0.29575003415397055,0.2920738715499161,0.2839291560214761,0.2874137093109036,0.285851708183,0.285219040451516,0.2796465214623516,0.2684453739878941,0.26260937100565845,0.2646086899220641,0.27240753442657994,0.27725910253611796,0.27764217262464136,0.27804048753241045,0.275257922127418,0.27070128993045844,0.26645119626343183,0.2661083597783267,0.2713579645294521,0.26672843498610044,0.2663045586696251,0.27203927502826536,0.2719763660661842,0.2706173743189301,0.26811009612364767,0.26580909026639893,0.2636380526103327,0.25309431807944316,0.24511240355073147,0.2457327910708589,0.24061620533583797,0.24179043725183128,0.2427744092033454,0.24049938866882445,0.23660362198309642,0.23811819655837124,0.24385778365820485,0.24311279902192398,0.23904827896672534,0.23125950577439472,0.22497143725412816,0.22608055396280327,0.23271696250387583,0.23557262402034881,0.2451650155052459,0.2530477092215337,0.25417631246921213,0.2556791302563983,0.2605377772936814,0.26464927838882535,0.2703843795744107,0.2753617375000487,0.2747683435737094,0.2812529029413844,0.2839138667361881,0.28614351108859715,0.29171390766894917,0.29258147258887296,0.2923863609897483,0.2887517489873195,0.2873574835820649,0.29685491256943997,0.2999770736412789,0.3082414899794745,0.3118072175423611,0.3146961764832586,0.31751143964062944,0.32557051127795117,0.32691526733469917,0.3367486720431442,0.34494838522470506
0.5644547437112365,0.5571546820943927,0.5582948545991419,0.5608282858083686,0.5566044621110428,0.5479638301681696,0.5383654726026665,0.5307161829970276,0.5212240410408095,0.5188566417574798,0.5194471513249206,0.5142047938320267,0.502814971484947,0.5000458075735711,0.4987152032187018,0.5049366806236864,0.5048122537979663,0.5004410924361099,0.4951243809549132,0.49203231264690883,0.4923961658243296,0.48345674979622577,0.4776879749963384,0.4713676087389837,0.4616531567150436,0.4557665981335392,0.44982147494524966,0.4430570956188091,0.4377126306148394,0.43300173253119656,0.4297737983291814,0.4222038203981131,0.41933452968417606,0.4192608384466828,0.42673066192980086,0.4195692587316199,0.41670082538272296,0.4161779442453146,0.41809237685426964,0.418071756658069,0.41704568038065293,0.4092080287344271,0.4053831852340314,0.3937499913703437,0.3832495890423494,0.3849720123238718,0.3806939731596835,0.3788760760519426,0.3742937858603213,0.37719761277358876,0.379635458771614,0.38024788917583136,0.37917844834233594,0.378249322203714,0.375085625502616,0.3808900821012935,0.3773386105549227,0.3810981314071574,0.3860725024747281,0.3887992398287351,0.3885212586308336,0.38463206232385955,0.37952654977269606,0.37361149768646074,0.3695802158865701,0.3660154690598198,0.3656806874490021,0.36026911864838157,0.36192808898469375,0.3504335401394486,0.3367401354632092,0.32423108105120163,0.3145314281053306,0.2986946020095379,0.28979081262814693,0.2774340377307829,0.26628565897662987,0.2747585546057803,0.28494679333039474,0.2813349405542264,0.28106019371556873,0.2851911799848039,0.28783856124653207,0.2881544139178354,0.2829697200587841,0.2803370196867202,0.28094257712088916,0.27857756110378123,0.2749582961492196,0.26995879822034397,0.26881040942971135,0.26235643999607583,0.2544826176190097,0.25463512107119873,0.26232085968136454,0.2603845140203209,0.263494162745735,0.2628578221731849,0.2613986693293754,0.2599131572629489,0.2558726032166401,0.2553485912278961,0.2594797044916756,0.25812134653580604,0.26065828520957685,0.26373441776969114,0.26622946446011647,0.25998662229562264,0.26271553922006696,0.2585594360201627,0.25796239944214444,0.24683759485864606,0.2363052482779554,0.2381305595655787,0.23234371575257246,0.23973924383204212,0.23540002747626185,0.23877192386188628,0.23624692366489147,0.23499441845646396,0.24150432519988455,0.23546476455714763,0.22744556034682786,0.22442901132028728,0.21972512156112722,0.22610603149502503,0.2310166343794884,0.23627736722197162,0.2389571799345378,0.2423694875880768,0.24690886972504505,0.24998373683656178,0.25269883252458175,0.2571214240328191,0.26273001882391867,0.26210740065117555,0.26964001419692907,0.27124086156045474,0.2722212047319482,0.27909914722199897,0.28147416818360166,0.28441699968173073,0.2898471474850923,0.28896416211688414,0.29012763182609985,0.29852836077853645,0.3006376402546445,0.30563487247933574,0.3078040560561162,0.3115689289459593,0.3150277403731744,0.3168703130207764,0.3234994369801643,0.32915205237165035,0.33899027333208964
0.5661061080693516,0.5637188063819574,0.5623580335405534,0.561016564356104,0.5660994963017242,0.5531758521181942,0.5450177225110346,0.531820347011205,0.5231683488287164,0.5269291393246005,0.5250382123122754,0.5132413535313514,0.5079763380497738,0.5086509675453497,0.5080154280881113,0.5089443997241409,0.5107060135368806,0.5022741119698874,0.4936873228212378,0.4921170763905931,0.4926480383940898,0.4848590574206845,0.4815062543273083,0.4719703873738377,0.4674539512193169,0.46000745173043356,0.4519711162765477,0.44985909920262446,0.4417763120575641,0.4406882280163564,0.436411598261822,0.4266540641804264,0.42033522104990706,0.42546364449302454,0.4241758189038465,0.42222326566361557,0.414917957101735,0.4101194454057132,0.4101749941173521,0.40897210718258725,0.40931136882630675,0.4045992928029315,0.40237418449889034,0.3960499592490797,0.38371262134517653,0.3875399656367966,0.38460952538061277,0.3804689858918037,0.37423886413400304,0.37870388854960196,0.38022734958868565,0.37929644553102193,0.37728421791908645,0.37879125135733666,0.37410863727047966,0.3757629020991853,0.3828081012026649,0.3808886321037261,0.3858639378381176,0.38766668132842586,0.38261929935684524,0.3767108277370291,0.3737203712336029,0.36844139604939663,0.36227223661571384,0.3561123900888107,0.35637021578128214,0.35675008460158913,0.3513364966119672,0.3480969477651196,0.33785672402185485,0.3262889816811936,0.30788298855457025,0.2912423745319756,0.281037647084042,0.27126502131060515,0.2647671181230928,0.2722528299297572,0.2782924868762977,0.28075095084350704,0.27767556636292323,0.2807419432749321,0.2796054898044701,0.271994954396303,0.2709237473575938,0.2699456193317951,0.27248300786610646,0.26823489078076085,0.26128858126670157,0.2539405471318812,0.2532819920095436,0.2531042929351289,0.24669295704041205,0.24397698755987896,0.24634774377254462,0.25354417003172863,0.2538755510388722,0.25453942190478535,0.25026303135443223,0.25022726989777555,0.24326818695536426,0.24291969674597952,0.24823222419620597,0.2531648490835464,0.25255804948498684,0.2557634439120878,0.2550628702306503,0.25865109491297483,0.2556920473401758,0.2538539570187276,0.24848400889440947,0.24009938636139452,0.22801394477916098,0.23225312669200562,0.2309322121623028,0.23193741490556427,0.23239606833989082,0.2332232445909173,0.23372205687968164,0.2366902558874552,0.2374535349289548,0.22893508383476388,0.21676268869236945,0.2106717145788035,0.21110232457571276,0.2193284321956334,0.22510305269977354,0.2306647390689462,0.23118144859676554,0.23436340016638604,0.24415791578987395,0.24551894973340865,0.2507463067370109,0.25734766127634745,0.25692383124509915,0.2550917556619054,0.25821662925618427,0.261838250105176,0.2653777324354698,0.27391402648965246,0.2782688571154124,0.2800774938549201,0.28228545661669024,0.29060991039890427,0.29351100038858213,0.2992499927717326,0.30023726372463866,0.3034757047293182,0.3098124458320238,0.30817069145142206,0.305759228549189,0.31362456155381796,0.31619590490110105,0.3232044129044263,0.32907113592620163
0.5717330707549715,0.5698788193318792,0.5673528135330587,0.5703155916699606,0.5694983759228767,0.555210715465097,0.5462638251715178,0.5393122646604256,0.5271452869285658,0.5247040573111508,0.5242645314525991,0.518462033431525,0.5174332413019631,0.517525108551722,0.512260364286248,0.5157723978042678,0.5136454706159792,0.506626915332337,0.5022710001525386,0.49223074124047406,0.4872556023724821,0.48348442138735154,0.48605505823314454,0.4762832922202104,0.47000941868812424,0.4597149412706113,0.4527812548722809,0.44682938208852785,0.44100645966169005,0.44272942605970156,0.43549781781898445,0.43374646664638294,0.4244240141736611,0.42378458646998146,0.42185941408363026,0.41386151966702533,0.412823127791188,0.40906653701132195,0.41076959943303726,0.4093836704678744,0.40444633711541494,0.40378415969506404,0.40384640724974497,0.39524751193802665,0.3844387683769353,0.38023775685554606,0.3833463203974344,0.37672323446318945,0.3766588582006609,0.3785949037913305,0.3741083684838972,0.37389229303869437,0.37639163834053546,0.37158152949685064,0.3731804246358461,0.37910720000664017,0.3774890931536352,0.3812440055890509,0.3782913097979718,0.37885500406004713,0.38140441350376814,0.37417469272449294,0.37278570552475687,0.36875253477381764,0.36239761525846476,0.3612539134990158,0.3603157578950187,0.3541221116382994,0.34773517573679585,0.34131218441992994,0.3332455380782361,0.31447494732726045,0.306081970236655,0.2916860113157269,0.2828338397198984,0.2706102400515093,0.2600632175799215,0.26467848685297396,0.2672602980681916,0.26883645269314205,0.2724925739628066,0.27199316095231546,0.2675078476978072,0.26876339868075977,0.267826598550309,0.26243363617029736,0.2614177256622893,0.25295775700971806,0.2467082724998373,0.24300439945537383,0.23905793438987744,0.23810306019862187,0.23860536546213448,0.23660627478193164,0.23677322603023207,0.24133426789578594,0.24131957412022004,0.24257848416615535,0.23955857869258793,0.2383314422197932,0.2382703797796546,0.24050236803707767,0.23586690854368214,0.24036195931994253,0.2375996680595438,0.24300869188420035,0.24267736623387612,0.24433332088254925,0.25202691244971814,0.24686103489096733,0.23981948998092817,0.23478744635870613,0.22853819469306488,0.2257215918560484,0.23088226044281362,0.23152947998097992,0.22951068608636951,0.22744692044672232,0.22846612616688974,0.22842171811600545,0.2292705698729721,0.22464935240310013,0.2129043191567428,0.20981619539168503,0.2032072007619441,0.2122436064524388,0.2167576183056807,0.2236969606363337,0.2241087216180834,0.22967682944365728,0.2366474962139647,0.23666881609493692,0.23897680822649855,0.24624339618942379,0.24674562069798997,0.24443863946126704,0.24679583173005706,0.257200013788742,0.2575876943062989,0.26431486071306637,0.2664413035756641,0.27408153871921864,0.28337848696447987,0.2890013290557647,0.2904980198693395,0.2939966763217146,0.2966591009550334,0.29873425409292076,0.30205666077049537,0.3020489566730338,0.3009570546257943,0.30328898051007547,0.3102070304129194,0.316007524397021,0.31926094871255883
