0.11347212014662826,0.11070243097559822,0.10597751645636792,0.11048602798768198,0.10938385723473389,0.10935612075353861,0.11302646929729297,0.1188542234778641,0.11038115267430183,0.10823304378363814,0.10371948188639132,0.1064228488961888,0.10008414168851715,0.09914382014931092,0.09891638107660451,0.10104344181258947,0.10134031073779692,0.09873335721090133,0.10043152329410901,0.10163381461032706,0.09639223236959292,0.09033592721727722,0.09042176221672898,0.08481242770307146,0.08305537444593449,0.08260581709564445,0.08892900056142215,0.08422571807131234,0.08011202411774114,0.07401401730786114,0.072636232185893,0.07264626362959392,0.06802661685781304,0.06394920708941033,0.06317360633066144,0.054441493679037264,0.05488382329970413,0.04964366004897982,0.04900457067961411,0.049993531264251004,0.04848703239465124,0.04798333872572016,0.038835154218857186,0.03770123481650811,0.048480214245344065,0.057015348213460236,0.06092831283954906,0.06927469785653427,0.06985584230222336,0.07564266391629594,0.07967388993380663,0.08492681187960241,0.0863753051942551,0.09749507900273366,0.09404643390140127,0.095826014523066,0.09286309070398308,0.09315432032601248,0.09496132342222731,0.09653657819160155,0.0903054135716562,0.08404892238193477,0.08243863439082753,0.07698624433714685,0.07327425215305035,0.07886591985171204,0.06970027947988167,0.07164389719162953,0.06457873374846486,0.06430577038407073,0.06848547206283853,0.07235397989955844,0.06991398440548748,0.06931053102010669,0.07058055560652826,0.07163887028731361,0.08089265509464963,0.08642297602576758,0.09840153928630985,0.1060282174817,0.12009691956364256,0.13210257545338175,0.14004224460969047,0.1503312973878112,0.16170267736854363,0.17617449362538337,0.19498493573457074,0.20739526850839332,0.21790936475216763,0.22608397636236127,0.23618890239021184,0.25082506197132376,0.24535070022212357,0.23892729232555351,0.24296061049638812,0.2446721939551001,0.24127838787835568,0.24638608884113253,0.24056335012630486,0.24252465084337224,0.2424458890766177,0.24405723909792357,0.2543850494608901,0.2541754487227121,0.25939276689446944,0.261300761408687,0.2625721324870568,0.26067909857591365,0.2620613940075091,0.2644451889425817,0.266455384027947,0.2734148037558446,0.2808775008951742,0.2871061526690997,0.2930043791860262,0.30654734410332724,0.308100461425371,0.30983398918646887,0.30709415138133805,0.3112789928126291,0.30945365345674275,0.3090686113277089,0.3087176429898888,0.3066512493800979,0.313433620661378,0.315988995609804,0.32128359697888614,0.3279544258732638,0.3407165132626213,0.3477830085087796,0.3578304878204206,0.3702282321829414,0.3733121801332736,0.37052692586903485,0.37794205235015516,0.3798342741644761,0.382169635540929,0.39130366535609873,0.4015633858304088,0.41181539868931716,0.4062818241093502,0.40436842639703524,0.4065214462922605,0.4070173525567951,0.4121132450379036,0.41510576055202425,0.4218434875466099,0.42544888645616497,0.43012655983856213,0.43387652022742346,0.4400376711966549,0.4504750907763236,0.4539400979871405,0.4584438241688136,0.46885633957347767
0.11369550557311797,0.11403311546173991,0.10944538835843302,0.11029311677435442,0.1116691904662831,0.10996774517774394,0.11180230084504737,0.1128194736676876,0.1091546954820002,0.10699760612079555,0.10377460171733563,0.09724865095115592,0.09667503644161331,0.09369918172877728,0.09596974253611038,0.09871253664405202,0.09324076313948755,0.0925337521665872,0.09265589757287863,0.09702463909865844,0.09562605195785692,0.09135098568795096,0.08693136421716567,0.0819389582137228,0.08161587747255722,0.07953351137557584,0.08550087091112378,0.08793043017315089,0.08364276098497421,0.07985172508266371,0.07606633611319899,0.07423105794566036,0.07046311394469673,0.061453329397648374,0.05933291165060643,0.057397039991339376,0.05739543437559218,0.05303913153456171,0.053381008036507284,0.05802005225682569,0.05593289755257311,0.05319303832014481,0.04606111923221456,0.04131135592272432,0.05117450360196186,0.06234006036553656,0.06753345846352818,0.07527952342211651,0.07698791380064404,0.08068956692910766,0.08499061012082029,0.08617652357828041,0.09142391682434388,0.09992228393701351,0.10188035320059019,0.10369265864928312,0.10168696281373274,0.09884892003959134,0.09755531285789366,0.10241229528086994,0.09630673863023866,0.08545574528313886,0.08296505192071182,0.08010429657788348,0.07910681732032462,0.0778490152331499,0.0731922942493735,0.07000161091064093,0.06739782664842621,0.06369778428946275,0.06720146955249887,0.06945917639501252,0.06612773986187208,0.06878454885977595,0.06737658329433935,0.07144882797276866,0.0767949694613068,0.08442219968042822,0.09501406492682016,0.10622398903435118,0.11722801216385155,0.1318694193296825,0.1419404387188028,0.14769545572032083,0.15677613615559943,0.17062791788958268,0.189443824770461,0.20519567164136676,0.2181284050562284,0.2287660375482436,0.2401333169633827,0.2477668674771004,0.24737859779887866,0.24218079341694684,0.2473232813709449,0.24742957499665397,0.24574569206100394,0.24191427947004776,0.24040703510552086,0.24273212658457524,0.2466866645369797,0.2474506238641104,0.2530669912806869,0.25805356043987965,0.25567521512950075,0.25629287012951174,0.25871692218076414,0.2631060785854853,0.2659518239385107,0.2666152540401745,0.2703240836784234,0.2712993465962851,0.2743832248230444,0.28343813234167387,0.2945206120735496,0.30344638460935036,0.30890001554047736,0.310550152903054,0.3095575382751877,0.31084738016518515,0.31262296813060225,0.3129702357021286,0.31137313951833523,0.30486748626242455,0.31525129074997166,0.3209240997319146,0.3224641141541451,0.3268841371336333,0.34155216460787524,0.35281111851661257,0.36089977310476373,0.366563594752683,0.3690625463292112,0.37090546189865253,0.3779145700030674,0.38180270151734713,0.38789450387963925,0.39631166062355144,0.40463472116317567,0.41305245520511674,0.4103859789333169,0.40573838039596527,0.4044045482056245,0.4084921561476342,0.41275224725311643,0.41917579238179864,0.4208065485064132,0.4261560004105772,0.43304662114809045,0.4347501912602952,0.4415068335208298,0.45010674884023405,0.45063820990847975,0.45552388787149806,0.4671857749600391
0.11532799804924715,0.11491157193520311,0.11241012097281673,0.1094180354277191,0.11082622480886867,0.11136985441502223,0.10831854532804963,0.10990722861887184,0.1061597848530427,0.1077878034888124,0.10024630321459349,0.09135706448824928,0.09177741345742058,0.09695264127811967,0.096072951585213,0.09800769985886318,0.09849811307402939,0.09850259181878693,0.09817812876561832,0.0995170392646409,0.09657867290553167,0.0957210018735394,0.08643156253345737,0.0863792817891437,0.08480048546778785,0.08499245094386852,0.0896510530162116,0.0929512485210756,0.08454311031457522,0.0817041084078105,0.07633835051693148,0.0709910720108324,0.0665930414653055,0.06813425439419102,0.061971255827126516,0.06379589289370012,0.05870107294079129,0.05646158328782819,0.06298017178264827,0.07044471659587156,0.06336604096696519,0.060532183588510535,0.05218322676788206,0.049857363544228823,0.059668383963741925,0.06745743267921994,0.07469461250631254,0.08001771765218292,0.0838285609420255,0.08586266182962529,0.08610216862980845,0.084391394403483,0.09538547057267732,0.09823977339197731,0.1003350054309247,0.10816560983905182,0.102152044438568,0.10093952914890536,0.09908182392190577,0.10055195006798338,0.09119499555478358,0.08359902522333908,0.08367862142624588,0.07921592047501641,0.08443300722811498,0.08236861306971911,0.07901441665912827,0.07366627737628902,0.07433165898459056,0.06992641030618821,0.07603523106710332,0.0741751323524191,0.07340693198637362,0.07876863214533751,0.07682031213279156,0.07470886777415452,0.08184902371636293,0.0914879708832981,0.10106656621585682,0.10470203322551926,0.12333776620187593,0.13364941634957653,0.1444545884754459,0.15114933406448805,0.16737167032029543,0.17928221073771206,0.19275566128002755,0.2129060088021967,0.21607756492527883,0.22948392618154853,0.23966203593595312,0.2470275497382139,0.24517148367953498,0.2438469741099343,0.2456857113037577,0.24567956735663396,0.24578217095799548,0.2483722309683884,0.24644260509905797,0.24195225673084214,0.24986143570325747,0.25136698661318646,0.2540756248740913,0.2579969782901783,0.2557904005963682,0.2551725311136658,0.2608836206502382,0.2650807857941318,0.26921416798543313,0.26975176480482915,0.27324577219529983,0.27020452645328336,0.2793467688208756,0.2817846254359757,0.29377097810843544,0.30648132854702603,0.3058516543352196,0.31073340312340414,0.30878204578852775,0.31122194784453183,0.3127826653805151,0.3166401773495024,0.31536025368836224,0.30901911782750613,0.31981123996237687,0.3231397457911965,0.32644977797099334,0.3310266825476691,0.34069807056897927,0.3556687263344146,0.36663650207506604,0.3756360151939197,0.37687836637624045,0.3830126312660126,0.383789620333956,0.38327335221711073,0.39301147910444095,0.3990856984869265,0.4052676026764532,0.4083976604246887,0.4087934975166282,0.4098764497843148,0.41255664245510965,0.4179862986173413,0.42574186182421636,0.4267503629220405,0.43119094542937436,0.4328019248148615,0.44204094915108133,0.44676383040196804,0.45309711683006837,0.4579940369273855,0.4642395343796442,0.46400571875340063,0.47129130069479563
0.11790117271889121,0.11619563695886795,0.11088659685630473,0.11050773848636834,0.11255241602609738,0.11397982668668402,0.11205250287540064,0.1058303420992517,0.1068304218790889,0.10267686129644431,0.0928683035656848,0.0851762817015059,0.08967317726815456,0.09763302696372235,0.0933856953480768,0.09335602769847264,0.09674576876788067,0.1002833862779858,0.10188531455935934,0.10416389153822952,0.09752628537255383,0.0947075290798624,0.09117191013785605,0.08989507333133002,0.08974688867006612,0.08642882582614377,0.09211409419002405,0.09827503036062095,0.09305304198245976,0.08279362770625026,0.07996579666525941,0.07267982744272158,0.07177392021397562,0.07006788528654843,0.07159707239887714,0.06776430457282161,0.06373703600439044,0.06453455193700969,0.07355971995167566,0.07771878222934801,0.07000116038892522,0.06783992677804344,0.06434608722125623,0.05482215311435322,0.06472098790217612,0.0750087272344363,0.07988250816629588,0.08736582901939802,0.0886296544676542,0.0934920997782665,0.09177098284114568,0.08795070417800738,0.09766518498236576,0.10220779610294548,0.10374133674453563,0.10685407646089307,0.10393950138643766,0.09993652913713968,0.09791714496374311,0.09890304550221014,0.0950609740778385,0.0866181147814748,0.0841184258022903,0.08136374904664678,0.08357099692501599,0.08768229901726257,0.08644849203261411,0.08147245239742994,0.08043115440950609,0.07688562694416887,0.08187656216101227,0.0830288545449222,0.08451399230287368,0.08345758638144975,0.08437331831180332,0.08171486810978146,0.08966100246871142,0.09309240170849495,0.09799957951446375,0.10833363450639247,0.11942398487050705,0.13655485774453738,0.14841501493847173,0.15645978969104854,0.1756478033132457,0.18903439679044298,0.20252333812608625,0.2154980974122181,0.22127359696358562,0.22548364784193506,0.2379421870003454,0.24500000488412788,0.24175281923861577,0.2404298014680353,0.24612243764446012,0.24699130381035986,0.25302154347155575,0.25399011288106876,0.25253513143457856,0.24675697020976647,0.2542041271546955,0.25786406758096847,0.2553631276919541,0.2566974379336506,0.25808243241316864,0.25860099286568905,0.26400643002850294,0.27090691403916867,0.2718169703524144,0.27555346204414993,0.2718884627305393,0.272998141272439,0.28049577284699617,0.2846477198960088,0.2991465343542244,0.3099425795449467,0.305784065962986,0.30647289038612857,0.31131828728758926,0.31108751191190476,0.3148469102533945,0.31792847334697893,0.3184916132732317,0.3191854102539878,0.32008462981200436,0.3233510125062024,0.33041599920062376,0.33571735298155736,0.34547830823137093,0.3530422507766337,0.3663345886848561,0.3825434398362814,0.38592679122220597,0.39041415498362464,0.3882495647919008,0.3901042016308483,0.3924517608912778,0.3995324389899346,0.4015932338412077,0.4051389175790676,0.407569224699912,0.4136493110329489,0.41920177198508396,0.427689249698502,0.4305791801118675,0.43572017998389934,0.43885279620054196,0.4441677957484812,0.4514430838231227,0.45638219904478233,0.45812945341919487,0.46295174120992433,0.4691286563859429,0.4771495813160034,0.48276381194064627
0.1192786569622063,0.11335816946284627,0.11440566036192276,0.1142555608940879,0.11348111282183329,0.11003656310254759,0.10581501867606052,0.10188650025232437,0.10291443596291408,0.09893963949859766,0.08950133575912488,0.08003870839460397,0.089668321799398,0.09842651834109283,0.09322299334082292,0.09564015362375976,0.09808612146898135,0.09983208044872725,0.0997329690801466,0.10466524222504206,0.10025982525629551,0.09437983448349653,0.0971757034897188,0.0956405209733893,0.09333640134027922,0.09422055090940368,0.09878721802268974,0.0997278081535698,0.09498360306164143,0.08536604866681557,0.07995807448966266,0.07718322412504369,0.0726184229690679,0.07761362603717845,0.07011843371699279,0.06851452499142938,0.0712153066897218,0.07098122074615751,0.07545854525972534,0.0801059858534168,0.07993317471970054,0.07375279167856916,0.06844843213732495,0.0694543667924597,0.07285449415493465,0.07872820333887405,0.08375327105475566,0.08901239765833642,0.09561254971609966,0.0932072275086713,0.09139708015395955,0.08791140274963646,0.0988927797707821,0.10494697607362542,0.10518347850941365,0.10482824597889817,0.10649712430666008,0.10271687813048419,0.099626964837189,0.09499482075192887,0.09004709927285812,0.08682231509049829,0.08679743420252126,0.08468947933250491,0.08518121911683278,0.0857547054515988,0.08607783398371227,0.08642877681268918,0.08613255835193442,0.08392063772849642,0.08640884750307674,0.09043052295657895,0.08820872215982326,0.08679355046755141,0.08659146801706953,0.08129348135280637,0.09106581946115776,0.09611566901652677,0.10630203217080218,0.11367765794699784,0.12456526342836134,0.13562025454957644,0.1494267582202743,0.1606344694555326,0.1732267487352804,0.18952002041827706,0.20194881468996867,0.2175820421460371,0.2238580625176418,0.23090735700987308,0.23684228665336624,0.2450136457280241,0.24447424398886616,0.2403331894741956,0.2417366680515821,0.24603098332539225,0.24818555201959697,0.25225671707802294,0.24988872008883742,0.2521811500673381,0.25554951018641237,0.259562852270196,0.2577234978076716,0.25640226700565877,0.2620648098204843,0.2645819908892597,0.26986976451438544,0.271236149076571,0.2761693898719796,0.27797419609970503,0.2776803427702136,0.271999918426549,0.28302914473490487,0.2887615516299875,0.2993383524560526,0.3094230555007521,0.3073909645063274,0.30515925412775674,0.3103764941922045,0.3096804656814347,0.31493155528743566,0.3153026196512669,0.31758176412728395,0.323429179984244,0.32707666165390764,0.3329707662557758,0.33528200031597377,0.3400127092898236,0.35331100200493576,0.36320284451845897,0.3766209672947153,0.38599290546431025,0.3916776305223583,0.3939149296920706,0.3964271403544382,0.39169342568671245,0.3992984585879399,0.39915378714646854,0.4014943039245512,0.406440405484454,0.4100247532996059,0.41832684375531126,0.4275177857187711,0.4369591367815155,0.4371087055762014,0.4436262371211583,0.4478313667538152,0.4541477757540853,0.4614068523457578,0.46157847929705076,0.4667382916202826,0.4706766431091731,0.47678809571687053,0.4837559692859172,0.48858784426382473
0.11369373858306417,0.11272638910046645,0.11248888171300377,0.11298156663931813,0.1120945556446556,0.11058475135652471,0.10840500300091649,0.10370080911850696,0.09951750445709535,0.08970607270051618,0.08349695148084804,0.07923601173652418,0.08421800806915267,0.09358649036923897,0.09307521794772375,0.09594510950140699,0.095615423142804,0.10145899517434807,0.10368188726170513,0.10100466995818734,0.09660711353875998,0.09784190266763053,0.09586411730648697,0.09608227640290085,0.09976997060409237,0.09838122268478669,0.09810378444303688,0.10267196550011688,0.09170957050423637,0.08594235491477593,0.08265437883551614,0.07809510072960132,0.07589244197336449,0.07972573634994591,0.076143311137832,0.0734701698872796,0.0759294007799026,0.07638311364335153,0.08283849882510527,0.08770518079721777,0.08614391454054006,0.08155134749734792,0.08186321265512697,0.07939569893837073,0.07922619170520415,0.08107864999738619,0.0866368181341168,0.09484271312177243,0.09867706392017235,0.09729864015785851,0.09682498565846145,0.09313977259893869,0.09705552831634195,0.1025695837573333,0.10463100432757494,0.10788727017464536,0.10538007590310164,0.10300418291647556,0.09962268792260791,0.0948109070750661,0.09333964556562173,0.09056186812811638,0.09309081062573983,0.09088410679781925,0.08870013062058175,0.08319648789398011,0.08644441294457682,0.08632630504603543,0.08865359567330432,0.09438309341171057,0.09530605907145864,0.09516018866085921,0.09068791547768834,0.08795891000439843,0.08686838244435144,0.08263772365233756,0.08875036762367623,0.09556971649581202,0.10969505449505333,0.12027180337780231,0.12760391004295005,0.13642540636243497,0.1499163136104774,0.16394516738427226,0.17465947954389105,0.1882508595140401,0.20288064675607162,0.215127751914315,0.22162235070821742,0.23060066139063348,0.23905986598781845,0.2442655851870345,0.2421733879963082,0.2381941106061999,0.23903326188149476,0.2443496313199629,0.24464452981068194,0.2504281234035813,0.25650634957959667,0.2571864224146766,0.26290149224161824,0.26522132383752733,0.2657465352878907,0.26145949590795825,0.26371381169111113,0.2703678630425952,0.27407377963878915,0.27411704491754346,0.2774122041903696,0.2782753203493181,0.27462847691163994,0.2767899766370091,0.28372771127089397,0.29134581292866363,0.296265735730289,0.3041354634034101,0.3056300211844868,0.3038443816944089,0.3094304024145806,0.31332285968997825,0.31136298870384294,0.3153501490015716,0.31902988566860097,0.3224620204743217,0.3309495091306347,0.34014738113020476,0.34360302901914486,0.3476339408659029,0.3631791825431662,0.37460191479698907,0.38462475416806785,0.392321900936668,0.3910557816878514,0.39362835549543856,0.3952682722542121,0.3992223714007811,0.3953934592049306,0.39762090315168996,0.404148502773344,0.40541887289496276,0.41565138791184364,0.42331105391635565,0.43092425613722674,0.44158150025059845,0.4424773336987764,0.4486249831369596,0.4558178434572126,0.4663703358932413,0.47049011355935366,0.4726072647351312,0.4775243226254569,0.4813281421081546,0.48591702893058963,0.4935634329540619,0.49616863620899865
0.11217868682517819,0.10880041076825754,0.10615384004718986,0.10507920343278018,0.10788608355544782,0.10607697021127474,0.09883476005003908,0.09704526702144926,0.09155009764508072,0.0856544459940086,0.08080043835941088,0.07723782757460056,0.08146776879195522,0.08725483454467128,0.09221202399151215,0.09275373393153931,0.09623241862378804,0.09933805602415402,0.10001859771211369,0.09894689592240187,0.10318786683823879,0.1057838991603599,0.10299084687080011,0.10172699752667258,0.10453369931156789,0.10519494942738163,0.10533270789111988,0.10749378209439452,0.0986057575647149,0.09211803967414574,0.08708523123653156,0.08094381017632454,0.08789499132007471,0.0853054753536494,0.0860407202618124,0.07794324561518956,0.08076745695991573,0.08481878843950956,0.08620472675853957,0.08849034836965346,0.08412278310386839,0.08646048213097829,0.08389861551000187,0.082383067010924,0.08320011752852621,0.08440742523384762,0.08869688974896006,0.09902426879562871,0.09827190027833813,0.09669336533358416,0.09837883022146154,0.09843839472989517,0.10467235739344632,0.10449707711506621,0.10496560838767534,0.10828388247019541,0.10902033142100397,0.10850795897478714,0.09950142161308788,0.09360236685404673,0.09658406256181198,0.09521807146886513,0.09502477301440568,0.09555175621573901,0.09205183871882251,0.09253204687108,0.09262809797325364,0.09326167669695701,0.09949334652329225,0.09709973451103215,0.10190719758715898,0.10463755265362358,0.10248667672471318,0.09677915839630265,0.09513930963985617,0.0893159525834751,0.09736459616358334,0.10740334152452374,0.1172021341754285,0.12749405627525362,0.13503345828843313,0.1516546943986922,0.16237074238230118,0.17001751513749408,0.17963386992663227,0.19137137807468652,0.2057565040305014,0.21760560588124359,0.22642303805447528,0.23275626617942968,0.23956327617611403,0.2500194353803643,0.2430769541550565,0.2460293570344722,0.24887467271566083,0.25098172851403205,0.2563004656429109,0.2583496269116749,0.25967492882517457,0.2599520686167264,0.26195975915605274,0.2619393792867133,0.2675244262901818,0.2655222206924708,0.266439664680478,0.2704103450505903,0.2733401785018616,0.27852946868910144,0.2799824382200656,0.2788721794117562,0.2811042816043166,0.2814720436628838,0.2858036108386193,0.2914434353497755,0.3025433307787898,0.30827171364882366,0.3046948229074554,0.30497034216519314,0.3145294986353754,0.3184437096135768,0.3182414961963357,0.31979449199985055,0.32281376457168476,0.33211283863044505,0.33583554522784514,0.3373968905916676,0.3435166999811944,0.3516597887123312,0.36372345272138423,0.3776153706886842,0.3879322585518167,0.3974133701304343,0.3951453231894567,0.39724057089749054,0.4030123070498554,0.4011407311305425,0.40131726053175676,0.4055363627715463,0.4060658962176955,0.41077836185814726,0.4180421335245247,0.4230788582069659,0.4322776010186138,0.4393880701903463,0.4460273240425998,0.4499834544125096,0.4621687992512067,0.4688691994410419,0.4754196040051154,0.47527731623312464,0.4804071434536428,0.48417262143935813,0.49248438966941344,0.4949771855114546,0.4989474528446969
0.1086001934430256,0.10564338352323344,0.10438059232907029,0.10196270949196079,0.10092706440330965,0.10039545849206606,0.09497387593568861,0.08963163277311102,0.08289875567065465,0.07936262717268834,0.07511082548374311,0.07418608616817558,0.07987490816464674,0.08573403490834221,0.08860857629563389,0.0872595786782055,0.09201697409044439,0.0988205213804158,0.09862077551648027,0.10112155297926048,0.1076188651966333,0.11365027795107771,0.1159793769918098,0.11293421112887922,0.11271574917418037,0.11093706793456166,0.10775222082961651,0.10682775620593576,0.10407572551106595,0.1012939879149328,0.09386840659010229,0.08729391021454307,0.09104723178337426,0.09433179502959996,0.08920570366165209,0.08689174354065433,0.08954481525495603,0.09611572680873294,0.09363601922276074,0.08714210658348032,0.08745782615647109,0.08881753398657467,0.08669537201003648,0.08506747019961057,0.0867593154223531,0.09129259452780211,0.09672432593276895,0.09943110257011063,0.10172754520665148,0.09840959242075067,0.10496911458742368,0.10628378441107804,0.10735005605271425,0.10836972881224718,0.11289334322061409,0.11322662423072087,0.11003101274056236,0.1094213381152347,0.10128394647188861,0.09745986814325026,0.09520369922077972,0.09552599353246986,0.09550450845606458,0.09759350997112486,0.1002398381302695,0.1006046954844911,0.10366531223813087,0.10533886720113617,0.10624255601831945,0.10370349598370389,0.10447662415181382,0.11094613112849572,0.10506396677458797,0.10362091004610426,0.0980593768401815,0.09564596422854532,0.10645818717751626,0.11542281313759649,0.12175233182391897,0.12893889662679173,0.14607704790226078,0.16134498005262546,0.169990290859728,0.18124993176272636,0.18747262676294063,0.1966856805645524,0.20944786540367052,0.21833145275397375,0.22955776574528794,0.23511354900534698,0.24586222676776562,0.25173057730453297,0.2531242535297769,0.24971532741206054,0.2534362374764179,0.2580701163787648,0.2636498622145822,0.26924808529354655,0.26993310040352364,0.2646687801562419,0.2650830284794593,0.2645610759955458,0.26385390074561654,0.26919903141475815,0.26850423634860826,0.2725630168064735,0.2746878051509341,0.2806238883950404,0.28225583514122626,0.283565133503363,0.2851706971649059,0.28709980087225906,0.28941866682502754,0.29724078936028514,0.30386740121834993,0.3085103109041563,0.3081244894347518,0.3101306642626928,0.3194827239047919,0.3262884633747532,0.32482536335884094,0.32944597491142025,0.3317478315098471,0.33610510299678736,0.33905838913072184,0.3398897133332924,0.3465971873496575,0.35794391644241325,0.3668521321086441,0.3758039810245382,0.38866768476349844,0.3973143006913169,0.4037636281846182,0.4066086703309299,0.40491120303745654,0.4038678517765523,0.4043459689392492,0.407557013351737,0.41428400902103324,0.4190685790450205,0.4251844418835521,0.42601646742123145,0.4354997682272654,0.4407664004838486,0.4498872935927567,0.45616043346333046,0.46792571445908776,0.47565251152668664,0.48151796706506067,0.4835215882063355,0.48814554543928507,0.48673386307874983,0.4938745251923459,0.49994005732682667,0.5002714215886231
0.1017251932237519,0.09891435677372501,0.09434065555057476,0.09825213703469032,0.09704099418949544,0.09187440511983225,0.08583911714119087,0.08615865140022202,0.0823421779415822,0.080766085964997,0.07425150925781682,0.07741282289732479,0.07889965384067263,0.08562355356437669,0.0863673137443699,0.08581016430791917,0.0964277361095709,0.10231506578394951,0.10700051020584361,0.10822111446269918,0.11015679433432293,0.11817668638078564,0.1135963606244654,0.11375427088693613,0.11405412172653291,0.11410680969715528,0.10875254030661771,0.10653164150498727,0.10134091263273484,0.10006946834998556,0.09832187152919339,0.09448313788520642,0.09354347372682069,0.10051792091645764,0.09575475872829281,0.09639329342566669,0.09825271632800722,0.09965899582202963,0.0975100852148299,0.09324133863653467,0.0916566178467878,0.09091305261319599,0.0915102032380975,0.09246252764654826,0.09376240238239565,0.09666201948446897,0.09681824980708004,0.10183584899094462,0.09943364059315825,0.10275886125576945,0.10550440153533248,0.11180461809806382,0.11262540489113572,0.11364815105233048,0.11292906603200105,0.11465515528715695,0.11165747271543462,0.11371254244566928,0.10493277111684421,0.1044318911210032,0.10508471922140263,0.10470433373893301,0.10519752957832257,0.10011534460956525,0.1058795967960884,0.11047467506743634,0.11132496313299861,0.10936365018022569,0.11319024989007367,0.11165355996892966,0.11818178618985756,0.12017629274627542,0.1158035478228607,0.10827292026084319,0.10734389262982195,0.10521107205213467,0.11641382874151575,0.1256754411272503,0.130475933067002,0.1374136814605238,0.15384772451557066,0.16688698130288673,0.17719795773216626,0.1870336657279585,0.1934212655911954,0.19785656116476782,0.21247671017023745,0.22232092355648791,0.22893211200369606,0.23887604747676486,0.2430382127605137,0.25192992141564585,0.2521486096750454,0.2534606787401638,0.25891279234241943,0.26198841719337657,0.26504221980118386,0.273152200834558,0.27505618271994753,0.272132347649114,0.27222866897149867,0.26845422499822097,0.2737965587908309,0.2706975494739912,0.27244082243020745,0.2720339891996432,0.27495482075059907,0.27828052866292313,0.28059110122566877,0.286048929876731,0.28840995899271443,0.2837586552542628,0.2931256308702099,0.29934965415419235,0.30347223329632245,0.30423782589025294,0.30728871775732464,0.3158885201497397,0.32135047895601354,0.3296233516532081,0.3276350877817776,0.32902849967298503,0.33551475644244383,0.33950294184579577,0.34338231668848623,0.3488488574939957,0.3561045468073319,0.3650251119500791,0.37458478327449385,0.3806035198799716,0.3916501678175164,0.3985160382176787,0.4010878517263278,0.4050133705802608,0.4108694328642731,0.41026539190369843,0.41472286880033293,0.41440860936867424,0.42112232302112707,0.4197489684282847,0.42566853448650244,0.43297163512816733,0.4404601753123769,0.4475457275510317,0.4511130383210193,0.46102419259013244,0.46748526128965984,0.47743099264339184,0.48396881830976823,0.4895851698487336,0.4913187115228069,0.4883538798080895,0.49341226520849185,0.5026886456132287,0.5075893311827373
0.09735998194364358,0.0899772336006458,0.08970987387722638,0.09110010145989546,0.0896697268852586,0.08625697212584105,0.08363067803888706,0.07901741000141263,0.07635259798700382,0.07779684632367667,0.07786926022482701,0.0768825187878954,0.0800324840302287,0.08210603440712899,0.08246225970284903,0.08828032468983965,0.09350724566845807,0.10481046215990021,0.10716488646698721,0.11306959212586357,0.11871328382096306,0.11922500201270776,0.11999706698607308,0.12026883657923351,0.11905611572827071,0.11198623692810089,0.10807329018954519,0.10314654085461929,0.0987733341484117,0.09863258946671469,0.10252395673970431,0.10180029725850304,0.10358669506788108,0.10083895852907662,0.1031108172005944,0.10952657435503094,0.10589223876949905,0.10510404524354007,0.10323240584509588,0.09792090950185833,0.09564008853563159,0.09603827198734174,0.09905446109900254,0.09651319778730261,0.1002343477714712,0.1048788133031324,0.10576077219589138,0.10116984345457482,0.10027959381756693,0.10370338493174161,0.1123190280007516,0.11813378763443487,0.12018344375082532,0.11719389766179233,0.11281279690368544,0.11432150049727773,0.11076009432079481,0.1130603511831181,0.11095259329176448,0.10792646352256423,0.10731012382909556,0.11256526254374243,0.10894789644377115,0.10633181347173343,0.11145766236715371,0.11669371913661941,0.11797664806832199,0.11542630940178618,0.12235058838722682,0.12538533349054581,0.12324221018982308,0.12435613013461179,0.12053463187393175,0.1189795889212097,0.11443234573444752,0.11207066720762987,0.12520897514705648,0.1339999623402364,0.13794025517806288,0.1447361244196064,0.15763322793205048,0.17475368692132384,0.18260792664722142,0.19485569152661936,0.20157323666022203,0.20483795626684198,0.2145710347503465,0.22292916476239757,0.2284138527862098,0.23668263712752663,0.2412191578995435,0.24737808643283096,0.2526984532928316,0.2626177155234173,0.2637306213035413,0.2684810427275054,0.27129104962892864,0.2723969156769575,0.2755322603827835,0.2844304343396332,0.28359657258768795,0.277413417851986,0.27517719502956045,0.27633780884248216,0.2761602290677645,0.2739480896450136,0.2779102306528799,0.27818856846363654,0.28089534133414473,0.288249924687283,0.2868590853763956,0.28598955857320624,0.28982307218314346,0.2969776002196224,0.29717749279784383,0.30258719115825045,0.3131956601379359,0.31914761834207,0.32281489013413023,0.33248802289208684,0.331406524119608,0.3340948093193195,0.3363200038699401,0.3378089673346169,0.3488678601581432,0.3611523436743648,0.36409021986236006,0.373087863807597,0.38252921346848867,0.38910498622351664,0.3956854932102789,0.3977719823200698,0.4009376729954818,0.40786388206709856,0.4120878782363288,0.4183747607581007,0.42353301631234874,0.4240961833737008,0.42217855317194,0.422172321440022,0.4304427957572269,0.44130315040972456,0.4456426781425407,0.4507032407774401,0.45491123686479595,0.4624030462500146,0.4717333908610675,0.48460625941346747,0.48722496375027224,0.4958796199390404,0.49558724897939255,0.49522047369691885,0.50023069471599,0.5018483919924256,0.5134847430823042
0.0970976283081992,0.0918686324888004,0.08876581647489608,0.08845466875545303,0.08695888826193104,0.08502611995429843,0.08263001672991288,0.07788425507830847,0.08137016936548605,0.07853740076101558,0.07926379237351107,0.07350326702139619,0.08146005913382644,0.08661001733361035,0.08538876616322787,0.08656269618788848,0.09284483328785492,0.10400622151392158,0.10390011123812255,0.10931434215803248,0.11520614674634676,0.11235568678336832,0.11330318823693142,0.11616614447556162,0.1139633581159999,0.11014431563611862,0.10943981167425337,0.10437169998185328,0.10193913153891991,0.10220970724184687,0.10349236401488877,0.09975095218960252,0.09770237247172224,0.10296665281183758,0.1012099160922004,0.10755121307867087,0.10688092965322955,0.1024966545931822,0.09914402351203763,0.10115698702185075,0.0963276320096688,0.09542696953842242,0.09726666774140635,0.09673470040966839,0.10187114193443832,0.10311379262567047,0.10015884286482941,0.10239767442643287,0.10308727744990422,0.10940040094901152,0.11382874244559407,0.12044397344038188,0.12196070443204604,0.11880196878036707,0.12182105037301898,0.11994227210071189,0.1175375551518385,0.1149469649272598,0.11474033536006775,0.11344487363333412,0.1107953389596863,0.11867379094799402,0.11308218909612443,0.10906724149569387,0.11039253956516526,0.1151030882377662,0.11505831770727067,0.11731264869802349,0.12030533910773072,0.1288092802488765,0.121978566185018,0.12522570923402984,0.12514225491721667,0.12117732704226476,0.121278393016073,0.121176151862065,0.1304798326015536,0.13929717253454657,0.1475404693160339,0.15316872385350477,0.16360395832469685,0.18090059461895217,0.1892494901156595,0.19962287315901,0.2060683490831899,0.2070727797603933,0.21753884737497192,0.22665493800202413,0.2326003790564074,0.23780953175165426,0.2436515664197769,0.2503108952301483,0.25770780151984973,0.26961000257476886,0.2680887452895039,0.27623050240156155,0.27195137712143097,0.27260943983494246,0.2783879552405635,0.2792142770623419,0.2814484331671857,0.2787109124497906,0.28248998180475116,0.2799808902237298,0.28065265579790283,0.2771537309545879,0.2779867574454799,0.28270093169709043,0.2900271595313218,0.29060995162403663,0.29441346418650644,0.29758975980641283,0.2978360807199378,0.30394379344085437,0.303149653452678,0.3101016753308223,0.3142956661876182,0.32066710519838637,0.3279792168272526,0.3377027138720745,0.3371572510729843,0.3326032389262727,0.333180158472641,0.33249315844793265,0.3465414531658812,0.3587156438117335,0.36859277971397547,0.3762542247678059,0.378901749946983,0.38472107309902903,0.39534040279649946,0.39863601221084316,0.40550893309620156,0.40714306527648003,0.4102966052391608,0.4163469284841265,0.42349623711572293,0.42683067979862743,0.4249740658702668,0.42844770338970567,0.43021543738488516,0.43762253115519745,0.4449716760039611,0.45584445035057863,0.45924718218173066,0.4633013479033198,0.47063065993174397,0.4821976146349832,0.4855109923896607,0.4927560147641577,0.494091596658136,0.4998183378755421,0.50517318443218,0.5057577568576231,0.5134936127334438
0.09640533509866116,0.09013368958802688,0.08646453065975909,0.08556803854541221,0.08492315587760185,0.0860598616726371,0.08174480848936864,0.07842657113281652,0.08140676678282005,0.07961157478665501,0.07511928835869852,0.0754443101917429,0.08428583136093332,0.08903831411165782,0.08887613895617215,0.0862154510681481,0.09103842687243956,0.09781640025495178,0.10182012413772872,0.10983373195744135,0.10702648013185521,0.11011197539616333,0.11203140696808209,0.11121635839326874,0.10949174879928897,0.11190827155474052,0.11028064332449247,0.10680868646675942,0.10480825361648102,0.10531366003975462,0.10120772195843089,0.09829664628814168,0.09597793154066514,0.09944734868516407,0.10201906407939468,0.1001756517397051,0.1015655049404888,0.10325262036562687,0.10209920845839632,0.09942441911960345,0.09704070420289479,0.09629536139114508,0.09285335638651523,0.09438461306294356,0.09849001927397262,0.10176389403955374,0.10255911737443832,0.09758933888740651,0.10129097833431469,0.11078213345973058,0.11926481173450469,0.12647572937770699,0.12554963319584556,0.1246520968586115,0.12214285992543315,0.12165536454464608,0.11775185728014063,0.1188206484721988,0.11583254545005395,0.11514410139684832,0.11984099864641541,0.11865784691490501,0.11876713480750868,0.11466727255984206,0.1124759185321584,0.11464707763390457,0.11849054449200966,0.11928382655759479,0.12515393298534455,0.12670865151520014,0.12223143383826106,0.12187377172437032,0.1231354022810434,0.12436695052343717,0.12949365936229168,0.13345169325467876,0.13903986106266614,0.1487614452003505,0.1577454889061867,0.1626855670499075,0.17447358319767184,0.18167341390786107,0.19258180552008097,0.20208611445148617,0.2054373842029006,0.211712902997826,0.21782882530402997,0.22843260206765506,0.23786617724391348,0.24189745592285458,0.25188544726656276,0.2590759128028065,0.26415267212686183,0.2705467675923088,0.2739731238103582,0.27835937357729434,0.27483840638852347,0.2740178169136891,0.27744108856040134,0.2760324321123672,0.28099938419662435,0.28500241723097514,0.280560099149507,0.2800467290850851,0.27963017151278524,0.28270059518467117,0.28866296401056757,0.28916443144790666,0.2905782995999354,0.29728918721113473,0.29864635910072407,0.3052164314955081,0.30310535946621253,0.30532198919174863,0.31379690287875606,0.3162531925543862,0.32055757235674726,0.32341443002912923,0.3317019212096871,0.339156075543528,0.33363087016877463,0.33340977554811313,0.3323170241637753,0.3331019174216482,0.3451791737775749,0.35665090757431933,0.3670137293908577,0.37725162477103297,0.37975308835169114,0.3845383437970241,0.39600604199810313,0.40142781326994353,0.4020754840145725,0.4077949527571773,0.4122920216148622,0.4171743076707174,0.42594474914258246,0.4307285700060307,0.4339812675149562,0.4322692495875361,0.43185811808841856,0.4372676703674272,0.44380042534270575,0.4556130154690867,0.46019642138268374,0.46150636317392923,0.4719173644112457,0.47831391370800747,0.4811379526072329,0.48759183680311224,0.4969662987708657,0.5053321876396052,0.5103573238066462,0.5146844898976382,0.5158942245246113
0.09993192865909438,0.09243719584025092,0.08810087861722773,0.08887924562684515,0.08432988313914554,0.08715246954581995,0.07710017793323222,0.0768329620210308,0.07735660233637201,0.07814865791821451,0.0762038762656866,0.07838087119036356,0.08582087936495743,0.09032678859848899,0.08838738358081875,0.08759959166516619,0.09007754254274962,0.09519707218470727,0.10046210663617244,0.10611699421020106,0.10517517273398932,0.11091824160987913,0.10747803224332364,0.1124828010804158,0.11161226668807388,0.11234213189598659,0.11056905007428984,0.11209567756095447,0.11497891216533411,0.10943657114234742,0.10699712217116986,0.09952071964497594,0.09924076641843813,0.10112631486045706,0.10101904378515929,0.0997186020368094,0.0981132872024413,0.09817100422517526,0.0993790177397414,0.10004154819800676,0.10182607166619972,0.0970959907246653,0.09788120506025837,0.09648810451761128,0.09490741708133213,0.09953604411018732,0.09852251869626777,0.10061102387538551,0.1035494302973293,0.11458316515232471,0.11869839057475431,0.12586245756534037,0.12927799567895337,0.12754260679794913,0.12784378308636166,0.12554427235914117,0.12078590902908315,0.12212606385390566,0.12038219863258909,0.12344863328140704,0.11959949997724574,0.1256422657013733,0.12111996861737336,0.11704564045358028,0.11958486380621638,0.11974007751078747,0.12436791998533755,0.12540216887052308,0.12315605921347506,0.12377711742405215,0.12493313728979835,0.1258592153703739,0.1257017854346627,0.13020992974362192,0.13606420781266995,0.13751092710671464,0.14406781060253548,0.15489895860927813,0.16458010594232714,0.17691153127303563,0.1837354975866148,0.18860037604989693,0.1998757813557957,0.21021908876047535,0.21280239626979913,0.22164689291315515,0.22382894922732308,0.23049149994948853,0.23575773659035737,0.24860089224520457,0.25600446914887937,0.2683595582132713,0.27203547238362585,0.27188353933357473,0.2770004135159187,0.2752403594743081,0.2803340780955369,0.2765137997314771,0.27807977390149863,0.28008461159290626,0.2791583171228329,0.2814116948748205,0.28019834261847104,0.2822632903659874,0.2832127289241758,0.285473014432079,0.28744862965325413,0.2876454323318159,0.29790828022127563,0.3019012787537018,0.3054240789656538,0.31283851606973845,0.3115288675774174,0.3119625892674179,0.3165435739684026,0.31846483529527936,0.32236987008934154,0.3235658117224646,0.3337436082896887,0.33764573818736227,0.33828100007577155,0.3386686663055661,0.3339541175967197,0.33449641190462254,0.3446969635556482,0.36274302064746533,0.37311421514634147,0.3795824427668601,0.3836833095072805,0.387059611987432,0.3884806621375096,0.39669335720982424,0.40666279929874083,0.41242443426962244,0.4149052476157069,0.4223683982693664,0.42484237777893225,0.43220907412005355,0.4305351718990761,0.4321128001614193,0.4383949097852828,0.4351016117575162,0.4424499847200061,0.45110548678232276,0.45620185829013743,0.464591166700047,0.4706771979680917,0.4751716708680298,0.4863860012966708,0.49111693257326616,0.4992975192374166,0.507707069565062,0.5106849664099385,0.5170449239907657,0.5236634625491676
0.09868904299341236,0.09559627549419063,0.08859858963329972,0.0862862776464159,0.0827136390519655,0.08212923327343785,0.07943309298072662,0.07065292946581975,0.07586763522269395,0.07661581646183295,0.07960608552269406,0.08329462671379738,0.0890129965697471,0.08921778769905137,0.0888679594934251,0.08911872801789997,0.09480454522508666,0.0981120461994698,0.10052899307203261,0.10439399713267841,0.10365322656999022,0.10609560572169958,0.1099802617941697,0.10769688214226855,0.11211159798270827,0.11071480361869274,0.11421126238280403,0.12253050034804032,0.12061450410400468,0.11468125550118172,0.11156041122346155,0.10333332261664355,0.10387644645365149,0.10513854786308334,0.10293616659647263,0.09571856420587117,0.09630529396265697,0.09611149525503276,0.10039365281717093,0.10528166823954117,0.1010625101932392,0.09794782884448583,0.09414467053931372,0.09570441262596223,0.09901287860685719,0.09960822091827591,0.10118770479009967,0.10230556186020248,0.1079015513799213,0.11303183547099584,0.11943998812915055,0.13011669789565997,0.1301652412704915,0.12551690827185263,0.12915365081972938,0.12965275719932726,0.12600213353087625,0.12451952014001438,0.12263024178904078,0.12607798000172002,0.12905288256301475,0.1270313517759303,0.12671399024867014,0.12322289267521927,0.12523199992670303,0.12453406621916752,0.12796318650843458,0.12727447521635588,0.12530040038238546,0.12195703949380397,0.12257305519773029,0.12393569786929583,0.12624311470370267,0.13180237695442013,0.13522570184460764,0.14295368213389137,0.15382285826249864,0.1605647270968737,0.17545843703872896,0.18758409498834488,0.19522956366414118,0.19902034623137452,0.20526730290043657,0.2154189583720592,0.22356391079279905,0.22712347404195296,0.22774070288777856,0.22951698191352174,0.24341018117615631,0.2539890443456419,0.2650468312864644,0.2768035558644891,0.2727746090001926,0.27406113718794634,0.27754526416336284,0.2760169361661294,0.27961951318333234,0.2839957464065992,0.2848568792440518,0.27979698587134566,0.2809731066272727,0.27938805167264047,0.28005124462919023,0.2829659079086379,0.2840294755277814,0.2909039792882474,0.29321051074842,0.291947525183575,0.2997217817313157,0.30699827061626095,0.3112129155305438,0.3194137370521748,0.3214535514110433,0.3205726345247426,0.3191601945990285,0.3183926961370178,0.3246550027832481,0.3280922275174142,0.33101351180671074,0.3369186414238822,0.3425409492223987,0.3420557048088868,0.3413263467404463,0.337237653575304,0.3522483475530303,0.3629652761358089,0.37320826028058435,0.3843221877560412,0.3842963243339638,0.3842502823423985,0.39196609023499224,0.39434620247931274,0.4011155203004511,0.41400511991077743,0.4193202767760681,0.4259066380400422,0.4315063919887431,0.4342983891064635,0.4352977279297174,0.43540512994612623,0.4345624783461986,0.43737369640055196,0.4419312831045228,0.44849722101535816,0.4530689368722329,0.4629511740849301,0.4674729476697211,0.47487828373216523,0.48360245802880514,0.4953434246841784,0.5018708539313697,0.505568066631331,0.5158239521521412,0.5238443732665057,0.5269345163222122
0.10068194424192703,0.0938396538801498,0.08766485052870933,0.08543704640171719,0.08158071095756958,0.07492565432476352,0.07859415832905527,0.07390012975171972,0.07353728495686657,0.07344004276769175,0.07511485768516012,0.0847365904002959,0.08166516576347434,0.08526434370069787,0.08491071956435045,0.08656584566018352,0.0858841089028553,0.0916228656524144,0.09651834637309234,0.09551036432831757,0.09913806848682497,0.10179284597627616,0.10857650678913851,0.11048678614878799,0.11171562559399738,0.11181646104142273,0.11981412684221705,0.12666924444272346,0.12276526459647503,0.1162802005497942,0.11416000123275111,0.10967255861293229,0.10733983913563734,0.10630576459388992,0.10717384096588195,0.10099111896997177,0.0976053831270984,0.09588969994860731,0.09936575981450854,0.1055494607546114,0.09977171338666471,0.09993515366502176,0.09911141904171142,0.09818827645275734,0.10173464446337005,0.10636675209615114,0.10556409961884385,0.10725691555640482,0.10944855223852751,0.11777720650063636,0.12372997253519062,0.13292342085012185,0.13332091523279432,0.13237761572148085,0.13056611822165054,0.13588231229303382,0.13136474399530568,0.1266334572939334,0.13080160448091227,0.13121623654486458,0.12654467855788568,0.12806842084562006,0.130281805835201,0.12795337189171221,0.12968375259653017,0.1254781098019859,0.12990928282494402,0.13148034680437218,0.12942220683470246,0.12964224620687848,0.13089232368939316,0.13220329619852111,0.130795900035864,0.13711205561264603,0.13940303584455935,0.14567008829821196,0.15980040302567342,0.1673900784887801,0.17796921340874963,0.1875007645587547,0.1989935359118661,0.20669575356567754,0.2123637990757384,0.21790456748966708,0.2251051460769734,0.2275086164881939,0.22797457594401072,0.22798782925623304,0.24277941288586208,0.2593039989722986,0.26927831694232596,0.27757837122851003,0.2790463432255171,0.27497409074182805,0.27879957956510365,0.27941798452020455,0.2777105433566761,0.2843642254801043,0.2794584327659837,0.2807798203840411,0.2829014084791831,0.28326735653970625,0.2880216789508022,0.2879151474125933,0.2889856863817156,0.2908691152518605,0.29560120571183646,0.2927464854011431,0.30470639797910326,0.3070477808366048,0.31230044082594655,0.3170422179997371,0.3226284262095991,0.3230608928866437,0.32182816098227873,0.3205074483297433,0.3254840200895327,0.33123964055756105,0.33349759819372804,0.34002316029152163,0.3370076283651009,0.34031882521484075,0.3422282381938814,0.3398869392228548,0.3502178043759981,0.36029426128624387,0.3721155597155442,0.3832525564125683,0.3859379279739062,0.3857962551703382,0.3911164388967259,0.3992341659893487,0.4090193561235636,0.41191374095814054,0.42301657102763224,0.4286420406788006,0.43199807413364405,0.4353557912846444,0.43335233164454723,0.4352860077260227,0.43610943704279875,0.4376680195976164,0.4420509434434299,0.4489064389888039,0.4528913238265031,0.45822453907958344,0.46493090129943815,0.4757829269688854,0.47952295514267307,0.49144564824657616,0.49746691881808397,0.5011673651481022,0.5121025161220283,0.5192975781639946,0.5216092075199348
0.09172289558130899,0.09052681267296554,0.08369111455485521,0.07847554216545258,0.07304182379137775,0.07313234412830846,0.07596826452514457,0.0770627494800417,0.07660284255413814,0.07134498624522985,0.0736678620611719,0.08057901813273176,0.07778038434139757,0.07914720815979212,0.08025839500094258,0.08195541142057952,0.08442804756962034,0.08483232608392,0.09023095168457149,0.09233013737011327,0.09468195791807658,0.10170871736445525,0.10654437020791288,0.11066539786765536,0.1134424537984712,0.11575399791611649,0.12104403041253078,0.12877049545425023,0.12304163829635083,0.1221237225335241,0.11855398870789645,0.11352025772439987,0.10983472196041809,0.11223784187635501,0.11011873251300602,0.10424415259174555,0.0985959803739707,0.0963396088192628,0.09683703832653798,0.10318599849535572,0.1017582918149686,0.10045746464762083,0.10129572473601103,0.10401951962368503,0.10579733132124963,0.10978268625770442,0.11064399197232808,0.1113458027788806,0.11756965304966673,0.11956003870900117,0.12478310655090286,0.1301571064114573,0.13418684752729024,0.13684961026626738,0.13557264702965313,0.13847530884695552,0.1375735200469054,0.13128496093177558,0.13001226551965192,0.13113284853915919,0.13424324571052237,0.13299402942846392,0.13582132032182945,0.13730704339533747,0.1315236046113823,0.1307943848633432,0.132774369319022,0.13724345634745316,0.13855482977103176,0.13665056096374614,0.13452108333556215,0.13593322747831665,0.13801867938683765,0.1402910271829961,0.14838668808012923,0.1512035312283519,0.16254397073596394,0.17768179950402116,0.1868663137173066,0.19125480725598604,0.2008700147337054,0.21122355659361913,0.21804232765388246,0.21899970922985057,0.22898486483542202,0.2328199770821699,0.23410565638838104,0.23107662791765704,0.24711023040782334,0.26084732438512204,0.27045446447795,0.2773838652365303,0.2767971885017251,0.2793312546272485,0.2784113650639235,0.2785181046896749,0.2811223471790817,0.2821636708427299,0.27770025491604067,0.278977479631119,0.2834833711596564,0.28925585515891994,0.29371414178731414,0.29199937661806113,0.29466259482987717,0.296940106319408,0.29768795632957507,0.2971482092563883,0.3072324298765119,0.3115156124764597,0.3171662080750254,0.32028986283922206,0.32180413070916203,0.3281603188196006,0.32474800594604175,0.3249166192632834,0.3287469477561545,0.33691975410847824,0.33818747140996624,0.340931260962947,0.3382874136984368,0.33632924858226637,0.3372322335533705,0.3440386368528963,0.3507667780351429,0.36180279695964446,0.37132163881942387,0.3852341818022486,0.38439249271726394,0.38895705744589193,0.39762329233440347,0.4083756272037287,0.41402817733218167,0.41592742300707924,0.41908205392054,0.4277575676919257,0.42884606137910686,0.43585448219091305,0.4351541333073918,0.4302576024044545,0.4339237023586887,0.4416429024996798,0.44388129533014553,0.44935039017347955,0.4495027958839762,0.4518696526814625,0.46397948038657366,0.4715129954433821,0.47607895880368517,0.4842909674516223,0.49350896684544804,0.501311450004628,0.5107221477311117,0.5143903222790773,0.5187798561101183
0.09339779513214962,0.08780301993056985,0.08307129503405945,0.07531432000974998,0.07374343139894947,0.07702171765799207,0.07444356264490061,0.07782319012110023,0.07650304302371302,0.07702068744140853,0.0749760388533145,0.07828680747606286,0.07536709269340523,0.07391132169926382,0.07356777142670996,0.07604782851572517,0.0797682737543249,0.08465529072714467,0.08429394041818787,0.08850943932799638,0.09758983686485567,0.09930710807175375,0.10497281191316149,0.11185368008618521,0.11453117668917354,0.12116069179849588,0.1288406493576046,0.1293493420425644,0.12955073036374148,0.12355600499319049,0.1224519286949831,0.120320901138889,0.11599366707402589,0.1166949245128161,0.10628003616176034,0.10131694579356094,0.10324632629590656,0.10048738754009537,0.10138936877398697,0.10189142346251315,0.0994439441486532,0.10150170964872174,0.10204281520552322,0.10686387522988668,0.11000617708498237,0.11382035241978777,0.11496424431680335,0.11477948489241314,0.1156338122757625,0.11679413957451243,0.12059105784369803,0.1256366457749643,0.13049283964882727,0.135974053425362,0.138514935862106,0.1355235975237473,0.1350858591492289,0.13282031518284762,0.13120504678580644,0.13162527807398167,0.13156767857640092,0.13260805221358918,0.13508536587958486,0.13962338511429065,0.13871607941465813,0.13334771800426448,0.13611673794341497,0.13639434898791142,0.13484177637125835,0.13494557120812184,0.1394581937333333,0.14197216669507182,0.14517112490575262,0.1537567137274736,0.15604114838114694,0.16073280036194193,0.16979420652466096,0.18291316252946602,0.1870587360159833,0.1950310426021559,0.20231609270106446,0.2105113194038229,0.21932566558402225,0.2212295533772212,0.226716099093118,0.23421687559102877,0.23396331669472956,0.23703149364193524,0.2510330530255169,0.2612251076368509,0.26974721492597664,0.28488716353653026,0.28430756679299707,0.28526146287596943,0.2806899446597812,0.2813447721052736,0.27660703279785387,0.28088517920444145,0.2784088797601587,0.2798240604233876,0.2828489144367116,0.28777513712065006,0.2923022642059158,0.29433438861838157,0.29704812519880225,0.2976729940563671,0.2983164953318755,0.3046262188368085,0.306874019487589,0.3116306148230686,0.31630836768973475,0.3253156512990331,0.32565205291951904,0.3285420318070495,0.32886365385312555,0.3338715315501035,0.3360506046605691,0.33967629814717976,0.34574451477082724,0.3451036052361897,0.3434652536431983,0.34089698563735377,0.33952326070201055,0.34038931626545865,0.35092050872921704,0.36233068972501636,0.37607933196119886,0.3821683308911378,0.38908844883902793,0.39377871814164966,0.4004506338138876,0.40803270412970405,0.4111911075084222,0.4175228715095452,0.42553793383482313,0.4278477175887285,0.4331921222482319,0.4350876801272846,0.43213626736819527,0.43425135693734346,0.43943321186738177,0.44499067790836233,0.4471011964740496,0.44362049524769337,0.44494864594036315,0.4519910737814544,0.4571606636505501,0.4689145352780452,0.4706730833054688,0.47630277982624925,0.48485169526305527,0.4972860521293316,0.49951620074870934,0.5099794102091316,0.5210096418150469
0.09425599769655253,0.08604825739367394,0.08137675237538487,0.07676442636936931,0.07732331273486825,0.07862092845479582,0.07529773796232847,0.0732972125636886,0.07610642497141182,0.07699832475132853,0.07785930068457966,0.07315218628124073,0.06992401007170085,0.06884688333094524,0.06764129779346226,0.06679845186320063,0.07074416672421999,0.07987338330319542,0.08401711105054266,0.08400742545569806,0.09062404006555219,0.10147766533598158,0.10542028426401005,0.11261478989626862,0.12270510011873455,0.12684530840370647,0.12907101874604765,0.13488604376185848,0.12825478351758748,0.12590207264868436,0.12659601856201547,0.12561542096005418,0.12189654551309423,0.11610642046587866,0.11237647213585826,0.10430907504179669,0.10406106173541102,0.10648019265397345,0.10362295495436986,0.10241163418955278,0.10399558728419342,0.10396166938150789,0.10598945389576263,0.10499347772432031,0.11060526165156245,0.11293764657634305,0.11335448606581609,0.11620216566150364,0.11639543697005379,0.11729459570737202,0.11982321114021481,0.12616848640571152,0.13377674208725848,0.13730311759760136,0.13724940052783102,0.13730564938038672,0.13612383997883307,0.12938412002963082,0.1295557175617254,0.13079843100864325,0.13408575865857397,0.13558695031580273,0.13699407515737705,0.14433061534210773,0.14153516363658067,0.1392867284400201,0.13889296527051562,0.13720105535651791,0.13469326517246247,0.13808331385793463,0.14437603147810935,0.1461349855127258,0.15575127908964329,0.16246179499711538,0.16386829309820372,0.17048317161274393,0.17970508803691143,0.18456740595617777,0.19333327184815932,0.19754357053428523,0.2067712114957326,0.2112214548095453,0.21651287686621457,0.22474185243907263,0.23415114855144784,0.2385019550096563,0.23930523553250943,0.24447665873595306,0.25675010591745207,0.26332248797029395,0.2783135408370523,0.2879403713792943,0.29079056109952206,0.2882071260307207,0.285302059041214,0.28209530443316205,0.27581624082229167,0.2753653895326694,0.27363570230677015,0.27659007102678856,0.27655701673672367,0.28207703429525244,0.2930063348271502,0.29824389820716735,0.29961185111380617,0.30008157936013147,0.30246779196834034,0.31000485754509277,0.3114200421659127,0.3151903103895337,0.3209422835278077,0.3292028315789244,0.33379645149771586,0.3327960519161298,0.3344906608112716,0.3407243560414711,0.34437644080354923,0.3478891738008534,0.34939130297850063,0.34877143701267604,0.3450055689005904,0.34551389356660395,0.34384100776414533,0.3422205122390134,0.3518175739888585,0.3652015720189321,0.37419254533032736,0.38006977352036747,0.38969368974929974,0.3998089916561721,0.4078583185206338,0.41046521154995896,0.41707520784651325,0.4220938278342817,0.427184437419952,0.43371303032684205,0.4323131951273373,0.4363536332397332,0.4351655006845029,0.43482539884949334,0.4416143518151467,0.44394735822150244,0.44640713050302,0.44327385976828587,0.4434111929884646,0.4466725257218059,0.45180639889680646,0.4619075455450642,0.4668044041089211,0.47315016292764994,0.4828539605725848,0.48915462122878633,0.49656159108239795,0.5025880360988171,0.5135771086590143
0.0988324459519961,0.09988719397579103,0.09336182717702851,0.08562226173455487,0.08714640432979037,0.08665641417755478,0.08104892590209405,0.08054935751025936,0.08042899008329586,0.0834766237037175,0.08262783245785546,0.08173485709878256,0.07816817005912688,0.08265078538800913,0.07733587024416204,0.07798275010677923,0.08169108947749185,0.0868708440048685,0.09418161080191151,0.10133255763427818,0.10511908685071188,0.11388418208820907,0.11638499498253022,0.11962627274390193,0.12881208546815107,0.13381878912950365,0.1424420068346129,0.14260494549357788,0.1383666532322554,0.1334093261529886,0.13452654639272857,0.13492306085891656,0.13012660826584518,0.1275709488179005,0.12604779987619383,0.11747308353333849,0.11896484013334911,0.11647338108355781,0.10803275728959896,0.10495671307034088,0.10628374326598462,0.10995386003540301,0.11323253024777805,0.11058502087509582,0.11323305778257275,0.11739190876309705,0.11655253308932358,0.11816354671194224,0.12271399390880869,0.12853116476489576,0.12750782042995742,0.1308123124485895,0.13499728771949934,0.1418264671225128,0.14034023748326122,0.14195423576264304,0.13480658306037216,0.13609815523234423,0.13609844358903078,0.1336804609475974,0.1358585437500756,0.1404122582916587,0.14364064745006863,0.14654464658698638,0.14520967173938712,0.1448482629508304,0.14214803253526034,0.14033945564412892,0.14772541890913354,0.14853015157795502,0.1512879189034135,0.15884795416287187,0.16356538701727638,0.17167676214481492,0.1772389193971647,0.17760664920037927,0.1831922728896742,0.18736397811367078,0.1946504580745917,0.19864787500297645,0.20625274860019877,0.21230364259474796,0.2205445362205706,0.2287746196621122,0.23151619599137785,0.23815724016217493,0.24521850160637232,0.24789048537624234,0.2580903316149342,0.26806943726764393,0.27693683295625365,0.28316803111298156,0.28291677348661226,0.2843546447174507,0.28610167427043703,0.2821875799337137,0.28186143343529935,0.28074774203327973,0.2800412340605969,0.28325841575101307,0.28067448757532165,0.28629322912826116,0.29399075087828674,0.30257366372417177,0.3006221407829657,0.2981890153805672,0.30079623570333547,0.30700787783094224,0.30841573777264253,0.3189453692401565,0.32251824278133834,0.3224591261539718,0.32691999161200197,0.32556673179391465,0.3329998253115952,0.3408078766575651,0.34070628637330586,0.34061048121537973,0.3444322321345053,0.34539828962806335,0.3453399146277607,0.3415310981197315,0.344167639119667,0.3436100818416262,0.35124707035636143,0.3666391287967438,0.37372269128961016,0.37926678860002094,0.38535531045177335,0.3898858876929716,0.3981094267035218,0.40369561350157634,0.41068895956846374,0.41946657532700743,0.4227123301264852,0.43413904766111105,0.4358528174108017,0.43555580513133807,0.44016378092866965,0.44081914980427866,0.4403660596228502,0.444105420589103,0.44459870473130164,0.44637800329948,0.4475384143043411,0.44983806947955046,0.4580817523043546,0.4635905288314917,0.4674776663787087,0.4733587108273644,0.481459039717068,0.49388274415614897,0.4998068376224039,0.507428657452444,0.5150312727379108
0.10909000044804924,0.10902291594375485,0.10386325918476966,0.09674349261019097,0.09703360741332476,0.09538331367766732,0.08997002288281268,0.08693130492318939,0.08525787586045663,0.0854929092447247,0.08469374465442502,0.08587776743311233,0.08758246533023012,0.09378969375032117,0.09062056798859863,0.09042749157342991,0.09707078511071027,0.09972594801084435,0.11125300514942453,0.11735537533643918,0.11805855592792114,0.12426041057881886,0.12426064214429494,0.12865803264789744,0.13630883371666916,0.14477599483402584,0.14659195703582067,0.15280940747291272,0.1482845319235752,0.14468191835355546,0.14437952155994155,0.14108666341495707,0.14168335778586005,0.13814668790026646,0.1342657913206443,0.13401520904522016,0.1269860075570829,0.12321374320793528,0.11797148606986281,0.10923746300957018,0.1139359804371328,0.1175273974851819,0.11848469628454056,0.12131509858564182,0.11925594349640206,0.1229619112520669,0.11756817595096236,0.11814854328462182,0.12397339934281644,0.13475392656403126,0.1378616979792001,0.1390327884045972,0.141761236417537,0.14578916564523722,0.14917274317107418,0.1464033296005633,0.1436309192077742,0.13827198839412885,0.14169126079966624,0.13924763988524985,0.14395093555508462,0.14381443743102543,0.14697727939179459,0.14647304331687186,0.1514517088349243,0.15171729237137405,0.1509143939597764,0.1463313598925005,0.15280942349009619,0.15855955493873244,0.16241188601779238,0.17063122768937097,0.176975249292138,0.18025775910409808,0.18659175280601742,0.1868475359614132,0.18530352768974098,0.18762736223872192,0.19306257502363916,0.2019160442753457,0.20743406037019527,0.21893962019821264,0.22798542508599068,0.23265633975441558,0.23773863272363294,0.23689433764495543,0.24731492640051653,0.2526827473709662,0.2617674487298913,0.26873320637482173,0.2777970825980491,0.2809271575529746,0.28179070331518613,0.28538441642415835,0.28100627992595295,0.2785738021976689,0.28312880863432194,0.284490392925744,0.28507510888226517,0.29003262930598356,0.2869272940924315,0.2856851704922519,0.2956672506152353,0.3008053326977242,0.29891431828810255,0.29592436653416065,0.29912712097791433,0.30080310703145996,0.30965145982677345,0.3175966209098253,0.3159772566145811,0.3171168919413833,0.32308714372238995,0.3234593562018998,0.3294393982100545,0.33800257967670916,0.33888902949776234,0.33941471816594293,0.33871185228676365,0.33835657625522025,0.3421555127327069,0.3427234220674696,0.34078508437348337,0.34018972816669313,0.35402186451294715,0.3622388249033692,0.37329649309927043,0.38041668547380275,0.383075821768685,0.38536265933234803,0.39180007512044923,0.39991492511536864,0.40638775344915173,0.41462066828744365,0.42227586171838366,0.42930104207649994,0.4348218289152323,0.43572995463907843,0.44101005370618973,0.44754639250831574,0.4486651934246661,0.4455571166692295,0.44774796115794574,0.44732131055576013,0.44992384980295835,0.4516921464767438,0.45872153249908965,0.4614265882743404,0.46849256894913544,0.47757298947663746,0.48659977098480683,0.4927968481728045,0.4981105347159269,0.5065706071731199,0.5146815966927409
0.11676238494446162,0.11544377115098985,0.11042935330505549,0.10434851778875841,0.10242918968739008,0.10109768624904815,0.10416594068812207,0.09735505822581644,0.10047061381422623,0.10132437155488347,0.10049713836469826,0.09673883569380828,0.10316013347947875,0.1042685689089209,0.10229854001478626,0.10086634326759485,0.10745107282279921,0.10869168409897276,0.12255613778461928,0.13061165621003626,0.12964486407645806,0.13155210348467564,0.13774938206489012,0.13609284842147462,0.14859292809427105,0.1519651594256468,0.15966631401304388,0.15789833080373858,0.15521181443853832,0.15350301754624648,0.1493802051311628,0.15147683386433625,0.1482936582278255,0.15242713071639555,0.14671951462042024,0.14572594004728398,0.13797621140620353,0.1338986404246335,0.12334223615022195,0.1162153117354956,0.122327507812394,0.12345589008713198,0.12782698932527853,0.12296428434684029,0.12313709891266755,0.12364382667422806,0.1257422853405023,0.12600987960279314,0.1318478283647725,0.14112985901734137,0.14154582301740393,0.1450393673999473,0.15055330706041664,0.15290365289845603,0.15036399432125416,0.14886226602591665,0.1483310299630193,0.14282203091541631,0.14227653756585945,0.1421297760340248,0.1452786509967791,0.14818818371872108,0.148342908567839,0.14890053345145243,0.15466265841591492,0.15688149496149317,0.15566232343543931,0.15819158717429418,0.16150347047435032,0.16952725874327873,0.17680101618377023,0.18120058873035977,0.18551955351313268,0.18424991508040545,0.19220652745969652,0.19241948018135238,0.19391813693315985,0.19757261077108917,0.20044269385881744,0.20525972945928986,0.21093432207440083,0.2233895702434668,0.22780636579377092,0.23490109205302848,0.2385913697956062,0.23643402620626205,0.2495264266748723,0.25766325019301,0.26420657178143736,0.27160879333525056,0.27805745501705964,0.2839556676266249,0.2806710650347383,0.277122103284105,0.2781246122097013,0.2746929069648578,0.27947891279038595,0.28581936718314926,0.29101090331305524,0.2928776286136348,0.2908650436901437,0.29284886672546157,0.29671073910332374,0.2987392585426651,0.2966994564976305,0.2992612498086644,0.2985991683141664,0.29896644843695097,0.3018280560613115,0.31034034046324466,0.31573602776452203,0.3131274329326688,0.3215869430820254,0.32458912369987886,0.32744218099020467,0.3347901995711784,0.3354159052350675,0.3315498255224251,0.32966610878871494,0.3332942280940738,0.3370061963031585,0.33602563444748096,0.33680377305304804,0.3397852883053305,0.3526075963604677,0.36005158167581675,0.37268392052184934,0.37874179461010976,0.3823880618159748,0.3889108455453042,0.39216527186983197,0.3989117620805681,0.40621355558675337,0.4130199851085452,0.424122573035302,0.43127814045167223,0.43481031829196826,0.4398767508592629,0.4422029081064728,0.4517657686468774,0.44962382674946544,0.44902223009411285,0.45376487811193084,0.45074473870352905,0.45058901722383154,0.45185898039136296,0.4602432619471402,0.465012933978672,0.4703991741802727,0.47632105438460737,0.4846513923643144,0.4907884425091578,0.49992877460454055,0.5070817495444295,0.5120730456761279
0.12463067998590859,0.12006852697561755,0.1153224384143483,0.11535329330443339,0.11546614055801496,0.11183108335742845,0.11370862182222442,0.11175712384423933,0.11002616855251389,0.1132071198798232,0.11276363459701348,0.10775748323581182,0.11291770137806632,0.11447205751129423,0.11153300387856575,0.11103570889654087,0.11427188967946504,0.1226224931709215,0.12776882646312032,0.13853690219801593,0.13924093917003333,0.139655296530441,0.14586860075462754,0.14805999106145373,0.1548060088982024,0.16290761315822586,0.16280064531864372,0.16760885830249034,0.16502879711018306,0.16066899318996963,0.16393161635035744,0.1616593403028944,0.1635972381817419,0.16321238001044777,0.15746732776286088,0.15689893753855427,0.14841530781269613,0.13907687403248076,0.12928215115209782,0.12536388175706173,0.1312605259039155,0.1314170425754204,0.1279554768851317,0.12949862533239062,0.12857670625639503,0.12684638443921376,0.12694136594096095,0.13030420740030854,0.13522678413362924,0.1416043481319085,0.14536120112964912,0.15414542393812733,0.15676017219740393,0.15687122286592847,0.15264622732920297,0.14801864151743258,0.1470565260622578,0.1490556244604022,0.1491335426622202,0.14724251619290446,0.15045444015181145,0.15271425338324882,0.15192005397760375,0.15017973333150086,0.155698211264583,0.1638641956074634,0.1642602473471054,0.16634015065540567,0.17578174681447786,0.18224074172907123,0.1825916175256379,0.18699738654421627,0.19222704012573963,0.19340518560383677,0.1983005139915639,0.20057000070005349,0.2014575927954668,0.20539602215886818,0.20506070817116062,0.20611213202569117,0.21510277155428384,0.22193251925425472,0.22850670279435073,0.2322884638809653,0.23693189466378423,0.24183426136647662,0.25401165484564003,0.26001424715846905,0.26783556169851036,0.2709270320790452,0.278727846436548,0.2826027294369231,0.2757653646527698,0.27455649046939,0.27704834487291746,0.2739272442519613,0.28354362970258495,0.28985419766085396,0.2918516057403889,0.29570120107594655,0.29965766052185033,0.29886657407350536,0.29588980030476747,0.29384393506273854,0.29611189812762817,0.29832462422474354,0.2989010867407349,0.29587180926725815,0.3016322842062495,0.30531274823126203,0.31115312178296434,0.31341862124016506,0.31614829952872847,0.3236754192074654,0.3296048984617572,0.3331348144849555,0.3293311209933709,0.3242282911366974,0.3261924699117987,0.3251613334097224,0.3296688490294864,0.33263552240910804,0.340521110647496,0.34264220016235336,0.35452968798555345,0.3615469788815042,0.3701977918156312,0.38262255048512905,0.3861016209650966,0.39188296620785384,0.39400197490515626,0.3928109843902275,0.4037354838273168,0.41543939105240985,0.4250957154940539,0.4307520448696792,0.435952389833841,0.4378542338641501,0.4434494794219473,0.45216378513869804,0.4525520609220736,0.4550070280421956,0.45611074504597593,0.4559722750823955,0.45752848090114234,0.45741184874996327,0.46581785301862066,0.4681648776837531,0.47508316263336026,0.4779689963836258,0.4803687580621634,0.4884226916358789,0.49856573115962977,0.5077279295565881,0.514721616669685
0.13433123121326437,0.1315263732507119,0.13338659997410798,0.13126421428293517,0.1257219791756134,0.12278422846051194,0.1246076109041819,0.12156642893663863,0.12064373181832451,0.12392886548907765,0.12140711709243883,0.11804789251136447,0.12241702135940098,0.12432311771944947,0.12549069127648063,0.12134326063429653,0.1306737561845012,0.1363727559433193,0.138816633370156,0.14801033902342667,0.1481072681448611,0.15012501961524172,0.15387212288470717,0.158777542189022,0.16319230191072315,0.16290116365084079,0.17129525039366528,0.17350853426084822,0.1729561986443505,0.17063729073448672,0.1689070992136501,0.17162705314866716,0.16786330545912193,0.1657372695009098,0.1620241857940461,0.16291135341240806,0.16078896323442182,0.15207633677736962,0.1463800134387012,0.13959541832995817,0.13811997358056624,0.1364486184956696,0.13613173295720635,0.13126643026441367,0.1302058923217023,0.13397589931822246,0.1329731675630158,0.13060220530925276,0.141390909341241,0.1444803223941358,0.15172161795237601,0.1560516712898756,0.15594209571464818,0.16141887779210115,0.15697557191099779,0.15426802896444194,0.15411132363072366,0.15307776889526348,0.15157295127650824,0.15223735648113332,0.15892059048105003,0.16127699909124985,0.16095088737702568,0.15995310156624903,0.1690992129030307,0.17236675477456806,0.1733511471232603,0.1704684157886283,0.1789214069982901,0.18759948393189627,0.1891027780982497,0.1929409679243415,0.1953642232487084,0.19450747734530502,0.19921388203352683,0.19999808789933793,0.20789798894126443,0.20910884192285514,0.21416135170129041,0.21059773914747487,0.21921738637975702,0.22514851194811736,0.23250192221371582,0.23650477238512235,0.24005011247896207,0.24949613526638495,0.2545890954026464,0.26188722456775654,0.2672921925488541,0.27224274600970744,0.2736460615287088,0.2805667639190331,0.2775245653230937,0.27407471297258157,0.2793646349679085,0.2767640456400707,0.2835546268394429,0.2884359394855141,0.29424906926019845,0.2947372751711144,0.29808789763140536,0.29967495780536957,0.2983526254872223,0.2977073510427469,0.2972200235761933,0.2975736287796743,0.30037343207410316,0.2939264715694478,0.2980900043071132,0.29805817812467816,0.3031951906322129,0.3091303654721915,0.31103806257699435,0.3168143330753088,0.3208385572717614,0.3282095004154289,0.32476535191828215,0.32498825708277973,0.326876744577911,0.3260294875077613,0.333752781166478,0.33575102207148977,0.3410042110322595,0.3434054064694436,0.3535491574385789,0.35705569106527546,0.3705360167389789,0.37550091041827377,0.3813274755279623,0.3902525049830341,0.3932473951785726,0.3971116053698263,0.40432707789074196,0.41465168944896214,0.4202374702186438,0.4308923971274015,0.4354809133710687,0.44543084561441115,0.44970758687612605,0.4581890405119038,0.45845474027713834,0.45698521695898325,0.454501766096148,0.45848206165652666,0.45662560017549,0.45835980515338237,0.46540159935815584,0.46856529522762075,0.4747351789565896,0.4783839269147638,0.47992013117312565,0.48513013400723554,0.498703793490234,0.5027996523426594,0.5110313931597033
0.1466326986037707,0.1408713602367139,0.14448680389330823,0.145865667901335,0.14025169445823643,0.1369981062829908,0.13143399202438463,0.1308213104724734,0.13106191323548097,0.1340647972059783,0.13471000109382866,0.1335869209911858,0.13682060819126127,0.13805840731108723,0.1379271763776759,0.13732057472848846,0.14209010156532678,0.14504290869157577,0.14956872884240857,0.15928023280006595,0.15854305702910024,0.1591529946819254,0.16531172920546355,0.16655805863937603,0.16491654451834403,0.16666341820312489,0.17286467844081627,0.17599441964924906,0.174247297484855,0.1757623056789481,0.17688614988202955,0.18041555478293833,0.1781732702094797,0.17041257768204562,0.17090741270421275,0.16916940846153627,0.1689566097564438,0.1657777708049799,0.15606206447051668,0.14785606323420533,0.14552112833636036,0.14598537217630186,0.13803162756320866,0.13309319077733778,0.13743558497465133,0.1396453544051698,0.13995617653480885,0.13676236406670692,0.1439654025636474,0.14850714680150764,0.15475471541448568,0.15561903549784378,0.1616984983711326,0.16601697144931102,0.16858751316021928,0.16515377460729763,0.16428089894133463,0.16024903012456182,0.15838944555838644,0.1601450084795226,0.1657881197225344,0.1659391955338156,0.17184252246478268,0.17552703955535293,0.17523701991854967,0.1795639094879622,0.17625075079363556,0.17800153825836812,0.18018198180823158,0.18807029785885532,0.19191182792948325,0.20046437756725471,0.20077831281525085,0.20149464927544458,0.20228178735017402,0.203019707344802,0.20804483084734954,0.21879325603026406,0.21928883747271724,0.21539185641228306,0.22254820947841353,0.22989323336545514,0.2348260384856289,0.24133722883164715,0.24887122622081287,0.2512670720889884,0.26019728084307875,0.26410426987422975,0.26672122168786155,0.26947990899058794,0.27053280674589,0.27268405332486534,0.27059841882873287,0.2741880184580947,0.27901538640368245,0.2841572054030902,0.28368929234177304,0.28523153685394226,0.2906673660112579,0.2958546246774232,0.29872543783988026,0.3002362540715561,0.2996752637654945,0.29837838347676443,0.2972176269170226,0.30213410447966993,0.30015535681844085,0.2973516449310574,0.297561705797486,0.2946989885962958,0.29580836650450726,0.3026903994601969,0.30856762432802737,0.3149287863312382,0.3197753730342841,0.3187240623389261,0.32375332085909525,0.3275899799803439,0.32887229684821834,0.32467457223497553,0.3343893728448254,0.34061945505823993,0.34237786763613787,0.34481917330326006,0.3468834967086016,0.3540670826973126,0.36298177856173275,0.3729094674428988,0.3818144291154772,0.3859969674931473,0.3907710298413557,0.39728346167002715,0.4060225945140407,0.4089038512057348,0.4177930271007424,0.43130845960199726,0.43996049627459743,0.45015984189463154,0.4530309473754388,0.4599107091295506,0.45917942556612273,0.4568716027345666,0.4581645429199202,0.45670817779532524,0.46107709934536073,0.4605468584822442,0.46424400463364596,0.46807745048052385,0.47303731135173044,0.4763188918201352,0.4791691456803547,0.487930206979561,0.49273527247129373,0.503156166377971,0.5096575637058548
0.15852800895302027,0.15792151253526196,0.15582959503114646,0.15965042971409993,0.15111014833828215,0.14553570834097992,0.1451162688258735,0.13858725183651976,0.1395679762611546,0.14157346961148978,0.14660794626777263,0.1428093614647608,0.14548641550136543,0.14302759828710954,0.14567595788237875,0.14439582711989646,0.15138636929477584,0.15395337586378888,0.16248719481384027,0.16934868073846962,0.16619175314998524,0.17185304781347208,0.17300699626449678,0.1695682278152205,0.17168018072932045,0.1695976156805027,0.17299294797979436,0.17654247123332434,0.18232492510686935,0.18559003322607068,0.18457164926174455,0.18593735424888885,0.1817827170300943,0.17706932745661902,0.17748044830056794,0.180418315959777,0.17655475315090186,0.17318561881004507,0.16321620656849384,0.1568740730730079,0.15749131397783167,0.15037017855010285,0.14603533431206703,0.1430292466067514,0.14061658857441892,0.14432698125074334,0.14542003769418038,0.14588476284835677,0.1527819698843221,0.15806244551265583,0.15916254471227592,0.16340508213000146,0.16437383911550113,0.17132286438869113,0.1697632771257622,0.17410642383290797,0.16711520782762584,0.16724160233936708,0.16995404696715993,0.16572704474698102,0.17124359355973562,0.17851347540138743,0.1831231252430183,0.18866795364748198,0.1880640041473094,0.19059570104602608,0.19192119634038282,0.19219999733293572,0.19338441617943325,0.20182301335561298,0.20275965871223597,0.2059136894233701,0.20604530364943696,0.20634339561514115,0.21130791015480993,0.207345435124003,0.21762751169586117,0.22698274152492118,0.22597390429870212,0.2234059923127011,0.23124479307498902,0.23865535343147207,0.24203536306286358,0.25042805758854875,0.2514312960982662,0.25213499813097984,0.2586853893681245,0.26013045987030675,0.261852514049457,0.2707032393256843,0.2722021379285256,0.2735721417339982,0.27694681247878417,0.27812608879388445,0.28690493829584013,0.288893112891966,0.28953467031095914,0.29075159156378905,0.2944834576375622,0.29286089168468565,0.2955699522945558,0.29996162760157213,0.3028882732914579,0.30271212691370986,0.30430125797480917,0.30365474590068364,0.2994218124095335,0.2968679179405119,0.29606787255865674,0.2934456424730115,0.29963748514591093,0.3018628258454931,0.30914782417677183,0.31133068819066756,0.3149001164667485,0.3196035095591975,0.32149210911177906,0.32938871919475415,0.32673441321920327,0.3236782818871466,0.334863407889703,0.3405906078209449,0.34617499830095455,0.34862890953560854,0.3529702481946816,0.3533805744999691,0.3603828363488224,0.3713808205637279,0.374874923565745,0.384230701394271,0.3922765685503882,0.39679162737590024,0.40289387681604677,0.4105458445256058,0.4220772844157532,0.43362079399066233,0.442521270414833,0.44824450630869134,0.4560635524090622,0.45877137210075775,0.4591179125901009,0.45854332594245717,0.4632309716765286,0.46101952314722183,0.4587148590986643,0.46141166326663824,0.4630487164385126,0.4621017053592837,0.46814908209811745,0.4751640141145115,0.4785651945864249,0.48406555785828476,0.4896135013759908,0.4959420100898615,0.5021839440528106
0.1768063526077005,0.1721972983681878,0.167088723295626,0.16791091269457306,0.16245387233852593,0.16017815216104628,0.1529269415233104,0.1517216380441299,0.15394270162782836,0.1515567281626169,0.1541751412215326,0.15752605345926943,0.15627430419360358,0.14978385735516425,0.14959278147197308,0.15426810660108406,0.15946022792067532,0.16609698465155834,0.17062917732976965,0.1735683958231548,0.17661472027325478,0.17958010984955336,0.1792858819056077,0.17562826353134806,0.17585800649876215,0.17487364486921306,0.17834060332273766,0.1794705151069648,0.18640467152802964,0.19206421579831576,0.1915896002193143,0.19270063667920506,0.19081094100932844,0.18761294042774398,0.18685250069805065,0.19098141712845795,0.18746579739631264,0.18222841384589755,0.17165124816729788,0.16633717022419944,0.15984356184360474,0.15769566315644665,0.15287815026645352,0.14707785773337326,0.14454702829116345,0.14552248422247463,0.14968978764049315,0.15032661875746478,0.1554265722787396,0.16432684765517205,0.1667586286079188,0.16892953353069248,0.17329787754932194,0.1747606292586009,0.1780412931432158,0.18088963490123575,0.17861561530334374,0.1737569611307562,0.17299202049582543,0.1755337137078129,0.18098613881971515,0.19242471704858044,0.19437352669463484,0.19712031742232608,0.20167365101603235,0.20364570493873452,0.19940980331113345,0.20050155737934314,0.20352299971919333,0.21042001813574082,0.2111859952892854,0.21387570156598268,0.21692384237648818,0.21595140041872404,0.21404838670001405,0.2151621305738952,0.22338244572149432,0.23023424171360377,0.2295447765036899,0.23424162224813425,0.23839845584910271,0.24287479696217695,0.24971268000891156,0.2556379789483463,0.2567766196446615,0.2585422356556759,0.25993232720078446,0.2587915213233207,0.2600913916365827,0.2660342303306238,0.26911500162455315,0.2697087793512196,0.2747681638143931,0.28530013032672485,0.2883817515445971,0.2920141134184228,0.2924429451056344,0.2947842731046935,0.2979310867090274,0.2953574233550034,0.2971057699103374,0.2995175459469186,0.3025754743752244,0.30689482160282633,0.3036128555450209,0.3007866255531913,0.2990833759217298,0.2971499875298119,0.2934200055273518,0.29247043149695157,0.2963945465256781,0.29677807380271803,0.3051466278725575,0.31216959752651047,0.31298813490360455,0.31560669381807754,0.3208686743958256,0.32709055909154067,0.32931561297188283,0.32881612655644316,0.3362052845628302,0.3430724942740463,0.3432529267213276,0.3473478730164931,0.3520876914363148,0.35781547656102786,0.3625632271791456,0.3653781630541496,0.37451387500886096,0.3839066941063351,0.3873782591289483,0.39072911314407793,0.40075975851757495,0.41667970606501026,0.42179003904100254,0.43197903500049656,0.44106424056275295,0.4508022315595008,0.4565343021089934,0.46202744160721215,0.4601812021119804,0.459136989935301,0.4646792558009281,0.46806130834318055,0.4644630467023244,0.46171087561572394,0.4602234039575891,0.46019169904495605,0.4631538550559825,0.4690206879421397,0.4716433842630988,0.4769438746770865,0.4847918659051768,0.49252697033548054,0.4998042738428897
0.17635194346691405,0.17367599776769288,0.16860229320707823,0.16437442081798917,0.16647532015430125,0.162253536170816,0.16045803592811264,0.15386709867504778,0.15367030291946462,0.15535223655570254,0.1584837113293176,0.16439281627699495,0.16173650145645604,0.1587617586985949,0.15792243915994786,0.16408737628000936,0.16761756543989306,0.17079332476306058,0.1787989463247381,0.18033244956888606,0.18789267207083693,0.18655579073562625,0.18840109776613564,0.18463057728611762,0.18618890295297452,0.1885095578580476,0.18202418440032075,0.1854726391060994,0.189724384824648,0.19429668207055492,0.1957300989827848,0.19946443583326973,0.19500422589902705,0.19053840525943502,0.19373968250297122,0.1960657821917378,0.19239138978842035,0.1863227498371537,0.18041037391068981,0.17787996146710094,0.16885804310791902,0.1675210420564557,0.16082296813715505,0.15478409470123353,0.15167065637622165,0.1529349663124468,0.1543397459891632,0.16333920586303177,0.1641944142653163,0.16958436509092423,0.17505524820574292,0.17410206474933132,0.1809445204656337,0.1822059565265918,0.184866773113609,0.19235281670559112,0.18653978719940548,0.18273455691795779,0.18750651867910104,0.1855971039143209,0.19091248861975407,0.19360433260698862,0.19702558263872139,0.19809897819411842,0.2008003888743967,0.20590693261517845,0.20019748972786172,0.20072549198221065,0.20417945699587045,0.20593019517097386,0.21132967129191318,0.2176508160074553,0.21660074168896543,0.22444712462173863,0.22107955766200915,0.21990930865464936,0.22717021340322477,0.23027726252130065,0.23130665130437839,0.2391274296543534,0.24086669754141288,0.25415317754192523,0.25482200276704714,0.2658273783603861,0.2655443759717582,0.2656910235108957,0.2640333042722677,0.264042787361519,0.2673574291427761,0.2721591917445737,0.27014879831764727,0.2712038941956439,0.27920816761546247,0.28120601540775436,0.2882974030968902,0.29240273299975283,0.2919481347539663,0.28848324527103186,0.29022387865226523,0.29666702445488535,0.2944836110553312,0.2997221874497926,0.3017076574798515,0.30280888911991555,0.2957116132654229,0.29726369521727425,0.2943997944830328,0.2920908960538149,0.2907777862191861,0.2915253957929116,0.2912699207397774,0.29763827277685073,0.30148787388664733,0.304237621059196,0.3050741951671175,0.3100484292028887,0.31618171081759433,0.3201497503489071,0.32532208486403713,0.32608246803974555,0.3308608402066539,0.33553470221751164,0.3389611788526485,0.341966098424218,0.35041948364016956,0.35736723406681964,0.36295995471479825,0.3663794478602553,0.3737219804726202,0.3806473143925378,0.38185873340096876,0.3861600621568731,0.40178705204590504,0.41506430664134264,0.4227312699015116,0.43200738346404327,0.44277783967940415,0.44944685276397334,0.45469493901638086,0.4569254796907716,0.4618747528205131,0.464513396641524,0.46632449933758985,0.4698165962798418,0.46232262817381264,0.46056162297019826,0.4553199733674947,0.45500845481084173,0.4597011395640164,0.46683526399254277,0.4756862339575511,0.47597753401962173,0.48358602962468417,0.49365646990131706,0.4961312666143512
0.1714936714474476,0.17186626806724797,0.16714576679059662,0.1627269320311568,0.16317639373580556,0.16295264687349315,0.1580787979890948,0.15846122874589819,0.16079925789706837,0.16138784999333056,0.16627823727819327,0.1666774328731934,0.1651736738504265,0.16334896445692929,0.16706755348094665,0.16879349831978357,0.17101233406763733,0.17557329709588043,0.18123829868117344,0.19173762974480205,0.19434343946940452,0.19478646217897927,0.19280804201326418,0.19613529468886537,0.1980299801071321,0.19722091318034396,0.18905379631754654,0.1854112663671209,0.19493317078832284,0.19937178642181072,0.20560819132531877,0.20917292750818206,0.20360807745390264,0.1994585745173193,0.19928290407055554,0.20380546335781935,0.19538215574175558,0.19245628581995156,0.1873087072495076,0.184465816639595,0.1789895319665728,0.1748619971324753,0.16543901833671298,0.15841267671819576,0.15909004178747566,0.1623226045991964,0.16395146714699327,0.17046704040158955,0.1706608675451161,0.17597804976148645,0.1760514886226671,0.1822566052741602,0.1854195779187138,0.18829584419768738,0.19534825720980292,0.2010792658801599,0.19838487462377355,0.19675065792484855,0.19652025671681336,0.19645451222764618,0.19818636944200618,0.19632238695418153,0.19576708080189478,0.19722449611326176,0.20259970343609182,0.20345334669235227,0.20062401596299417,0.2011491884215178,0.20234484023898391,0.2072404293662776,0.21584565625398416,0.2191446872399965,0.22217885945961688,0.2277882220820431,0.2269818859393174,0.22934706955817602,0.23039066379059858,0.22955881947977017,0.23390297029348173,0.23788096231684022,0.2512870297865642,0.2600015045386841,0.267898397389197,0.2720346447674543,0.27318730442198874,0.2712666101639901,0.2665766622223139,0.266268876038844,0.27023554788785303,0.2775985082648827,0.2796739931164912,0.2758827728407063,0.28042668200789816,0.2802356132550965,0.28354249357257516,0.2881270422825958,0.2836301526568531,0.2826060913850098,0.28740080020391895,0.29593673962907585,0.29962667167404705,0.29805166255450666,0.29896186401392216,0.29672551231527394,0.2959229368195015,0.28956911492332893,0.28963002160198664,0.2882882740157509,0.2910520033563857,0.29551320482915766,0.2912390474858023,0.29263419131805485,0.2939654840116755,0.2985396482397902,0.3019009778615509,0.30630076127831996,0.3116698095401764,0.31287395748955493,0.3205652157890683,0.3228998262271015,0.3256561139642054,0.3275279300375452,0.3320009943105713,0.3388753836210607,0.34970483708470357,0.3562331451193425,0.36142676854159206,0.3683434860194259,0.3760102984234022,0.37929066215304946,0.3799371694460104,0.3837517607206587,0.399192809139098,0.409132020391051,0.41968128405479815,0.43328360474273103,0.43821289935778696,0.44776062408064454,0.45246200145926807,0.4565894138517095,0.4611325468507507,0.46952838416892934,0.47083774307450915,0.46733776585050985,0.46562260453053467,0.4630400345571287,0.4553768517392731,0.4473439982210109,0.4563335708119069,0.46870463504931703,0.47235567893792374,0.47844144933194777,0.48649009073690475,0.49176695716044305,0.493283550883284
0.17279397728313595,0.16554906533811778,0.16732632248730842,0.15844182450126867,0.16414419018447654,0.16044577481220818,0.1670396188669903,0.16304279613339448,0.1678390925413563,0.1647147111682264,0.16965487578481364,0.17159329643510127,0.17177962440213285,0.17210039433249555,0.17192150126464806,0.1741368548755183,0.17936381522531084,0.1863870355054258,0.19215008973627012,0.19926352937119504,0.19845571421217134,0.20106188230672806,0.20467674828806456,0.20417623485207448,0.2005370644329125,0.20649572441365022,0.20034785355669124,0.19453952940372085,0.19817209311335032,0.2033101845361755,0.21119154489862335,0.2158076651515251,0.21339074737086022,0.21256728958318427,0.21329047866454526,0.2134209108104602,0.20689616513547163,0.1964742575768874,0.19624764641100137,0.18902746252240837,0.18238074138769403,0.1774404746381249,0.17384842007990745,0.1701673850892873,0.17533151868830477,0.17604421975741233,0.18183804134164286,0.18224143695657882,0.18446330525505325,0.1798552235546594,0.18180435519874177,0.18746103075624107,0.19064607068862097,0.19608645850671372,0.20283988140063058,0.20629036134560463,0.20609563485849078,0.20441232607878135,0.20387861509247918,0.20868851383726433,0.20639331232715952,0.20704365727356744,0.20048541006684592,0.2033898389458444,0.2032835465981456,0.20737066798635373,0.21090663915478305,0.204988019889523,0.20947027101829557,0.2141269465610422,0.21586485001956482,0.22218345710163162,0.22516511192095123,0.22994214879670766,0.2287036967067107,0.23201522703887426,0.2329448367777883,0.23548796037880904,0.23650900978718792,0.24140460906101296,0.2524706911510695,0.2636701229330472,0.2723054674539347,0.2759785691365408,0.2746730319786698,0.27362136690959254,0.26976733229322336,0.2658799349921165,0.2723389748147807,0.27782792624682817,0.2813993298966756,0.2846201391933176,0.28425388197615464,0.28150011227801813,0.2791793513864013,0.2819309059932564,0.28003163639099576,0.2841552863663755,0.28792970337807805,0.2941434665566926,0.2911665707527366,0.29342214789151205,0.2950513098358975,0.29124658727834896,0.2890602481055729,0.29069505282439695,0.2868379739880878,0.2825045127993366,0.28704384481046963,0.29191485180423027,0.2934897257762055,0.28981778860659724,0.2927061849625045,0.29364267021175766,0.2981458902751738,0.29991424270794786,0.3039407304662044,0.3114849333602838,0.3136040683578878,0.321312988087044,0.32050205856973074,0.32901741549643165,0.3334127714688972,0.33684525890703976,0.35002673589815314,0.35311031426226147,0.36426011597862284,0.3735716618982314,0.3804731925178936,0.3856741565829198,0.38150330353700296,0.3829003490915818,0.3979694350502542,0.40899491552052764,0.42178510544209347,0.4308528895406117,0.43653382228655974,0.44595159408064633,0.45248435066126563,0.4549540272548894,0.4614085132674354,0.4617417365088057,0.46708803939039095,0.4694441647204949,0.46062112558101803,0.46046869961329384,0.4493029804641468,0.4450577873527421,0.45210764476375204,0.4654198990396278,0.4722962893504095,0.4774036810127061,0.4837148249667864,0.4844029900308217,0.4897859964080702
0.1695632229772377,0.16399099359049485,0.16272464922083518,0.15964365362273628,0.16128149554682022,0.16202181150202086,0.16790518447271824,0.17278544417140793,0.17209743481528605,0.17051535568055384,0.1757865576210773,0.1749298916799477,0.17655901457994677,0.1758063738146521,0.17752169722576253,0.18381105327829078,0.19106230710794364,0.19492560215024388,0.20138695550487998,0.20451640579828761,0.20914103866496223,0.2098972878715633,0.2098697832549428,0.20653299815537576,0.20699635707041636,0.21042346076936308,0.20616990398710758,0.20366135436302837,0.20306043558282222,0.20859615486637287,0.21633750272067567,0.2179099276050417,0.220734889632163,0.2225108833687956,0.2238452751839615,0.22005265066009422,0.21552025023370225,0.20585457218268435,0.19908723280415846,0.19558587084027718,0.18713471130923232,0.18475100272250525,0.18197641202993534,0.18036770392234244,0.18265625071920966,0.18917568297876733,0.19038630734650752,0.1930535309222493,0.18745146109774,0.18800557658397543,0.18787530176233636,0.19127266143156071,0.19272595344436053,0.19989299832591922,0.2087680869042227,0.21210899112303191,0.21058829213980773,0.2119115419454506,0.2139393219180658,0.21679504992632334,0.2170012334079263,0.21183974123686555,0.20816629820877722,0.20880607803805243,0.21080829862986392,0.21569872292664652,0.2154582605521273,0.21268142013751562,0.21579150862868207,0.22454036090795162,0.22272109986107658,0.22463455824248105,0.22698252921420262,0.22960963622879627,0.23428434813007723,0.24009028220448694,0.2408881030053512,0.23746874181592065,0.24069438715678984,0.2440210188627603,0.2533989982379843,0.2685146354585567,0.2770771705080664,0.28308075618100215,0.27882687739089546,0.2762606742020023,0.2751953403438321,0.26997535510504783,0.27668253074372545,0.27897723855225215,0.2834100426276678,0.29272995696109055,0.28858230224193704,0.28454463390739365,0.2819078370266471,0.27437797667924435,0.2775578710770407,0.28104843277853536,0.2879494097314031,0.2912612941474928,0.29290181331325393,0.2916855716123142,0.28872906232497253,0.28772256596540735,0.28643787494131684,0.2889271987989675,0.2827176836414423,0.2795457494872964,0.2803532051505897,0.2845130715057051,0.2864207875527357,0.2915654021195213,0.2908565731682824,0.294143704510783,0.29334088253724444,0.2978216960003347,0.3020273178450792,0.305743662119856,0.3087150625946838,0.31514859111366716,0.31943126637930175,0.32440424207888774,0.3306349891508906,0.33974861444087623,0.3489635757677881,0.35501267957413524,0.36806986613781634,0.3806771160025383,0.3839125102125476,0.3874458057518402,0.38393247848491496,0.3841493408287478,0.3996398261379473,0.40918034792613384,0.41874022428390906,0.43148889524050354,0.4369251418443752,0.4433700032300754,0.4501595895991524,0.4574407225123563,0.46053679158223715,0.4593473438970876,0.4628145928013681,0.4663434370722617,0.4612436193023794,0.45254341650123936,0.4469433226859494,0.4457762137274371,0.4503948472570508,0.4581368631223504,0.47324323987919903,0.48225396546965893,0.4843746443578788,0.4830131480958964,0.48292691356303297
0.1710503067141144,0.1656148411196497,0.16300684285358719,0.15932362157745977,0.16335992038792288,0.17133090238541113,0.17513915672902353,0.17873580595102165,0.1783391927742122,0.18246454459047157,0.17890055778529537,0.18376573946469704,0.1833895004954821,0.18613922935092125,0.1890655594308055,0.1935245026699138,0.1995715606419638,0.20212295700238048,0.20804239048242493,0.20487588015966215,0.2083413853286507,0.21579407764832553,0.21592276824320633,0.21741274399880378,0.2138596857748375,0.2136665892976547,0.2136876444204954,0.21204561325190643,0.21626068328848422,0.21776519240321474,0.2180955365883603,0.22194545060756957,0.2232459354476377,0.22698473925053364,0.22416375866506333,0.21985568029081506,0.2139946042246773,0.21401812310402898,0.2110762110415337,0.20724857278207254,0.20377274511599233,0.19778841885872422,0.19598810765666563,0.1908487242732054,0.19671683140457424,0.196291888683358,0.20132042903015349,0.20647135200841912,0.19984064523220846,0.19726331146759898,0.20006889592126256,0.20060247710005616,0.20418737424469066,0.2121715805675517,0.21369879535499725,0.2207764105463134,0.22550530755267711,0.2257029101146273,0.22751875426193657,0.22906950247543087,0.2257271112084254,0.22397187813121877,0.21915796643025665,0.21817703659695908,0.2182289613418391,0.21939451874333524,0.21988408132680387,0.22058084420384647,0.2233674958030174,0.2258442969191284,0.22489051841105095,0.23092249692204697,0.23401144400269874,0.23889913391190035,0.2398167851868499,0.24501765323973715,0.2422494011858218,0.24709010030120673,0.24430098336454525,0.24921285028484755,0.2593741747506734,0.2685920730598068,0.2758358043973108,0.2864987145004104,0.2838200988030602,0.2792867538062592,0.27541478003263603,0.27629606752974095,0.2780603281840593,0.2829820506487524,0.284140706828047,0.289399012568198,0.28822773182381684,0.2812377751106993,0.2816103204269596,0.2786041176213858,0.27602490901268617,0.2774139155057452,0.27808133090344167,0.28559714129981123,0.28709154004369464,0.2885314528099639,0.29113757645803623,0.28927899717548206,0.28200388135728605,0.28128501496081554,0.2791377557279206,0.27787076917616843,0.28156147928540415,0.2795237673512968,0.28419721217920385,0.28635610714965903,0.2892040725795577,0.2946780998457385,0.2948043860971769,0.2989835298773371,0.30109752071594476,0.30311357876468126,0.306616865728902,0.3121721193358431,0.3227452448619479,0.3251869679115578,0.3352859826857323,0.34271292362017114,0.3482626537587305,0.35906176898470005,0.3654332435580538,0.37594396189749923,0.3804792505096817,0.3841369080831432,0.3824410342688307,0.38662672291739086,0.3967949374691185,0.40735749441755376,0.4183674426440217,0.4268113314299627,0.4316153170887371,0.4428649225884367,0.4452300687247323,0.4511612891820123,0.45598257713718776,0.4550807630527377,0.4585422094165703,0.4644932199116036,0.46070105538670336,0.45499096598945815,0.45445821919248325,0.45148043952942635,0.45316923177832275,0.46314237301767713,0.47374216314837153,0.482462889395344,0.4849112790961271,0.4865556528572411,0.4876640371200216
